# .PCD v0.7 - Point Cloud Data file format
VERSION 0.7
FIELDS x y z normal_x normal_y normal_z curvature
SIZE 4 4 4 4 4 4 4
TYPE F F F F F F F
COUNT 1 1 1 1 1 1 1
WIDTH 615
HEIGHT 1
VIEWPOINT 0 0 0 1 0 0 0
POINTS 615
DATA ascii
2.5527751 -4.6067185 7.7816715 -0.21672682 -0.92728209 -0.30524981 0.01707029
2.5638366 -4.6108456 7.7863436 -0.19828865 -0.92963576 -0.31057841 0.017059457
2.4674652 -4.4990292 7.4085526 -0.3544648 -0.90905517 -0.21902837 0.054224975
2.5693974 -4.5966678 7.741364 -0.17690931 -0.93890285 -0.29523632 0.017246231
2.494827 -4.5058136 7.3985929 -0.25672984 -0.93980986 -0.22549322 0.054177575
2.4989567 -4.4991269 7.347774 -0.2254135 -0.94564706 -0.23439367 0.058853131
2.3775551 -4.4495916 6.9677205 -0.57413578 -0.81874561 0.0048727845 0.15652296
2.4988201 -4.4959254 7.3325095 -0.21992835 -0.94773757 -0.2311386 0.059341803
2.6224775 -4.6011772 7.7320595 -0.080078244 -0.94918448 -0.30436203 0.016841402
2.6054296 -4.5990529 7.7315254 -0.11075781 -0.94787937 -0.29875973 0.017051274
2.6099613 -4.5970368 7.7212052 -0.09889812 -0.94955063 -0.29761174 0.01750244
2.5102479 -4.4983611 7.330452 -0.17615694 -0.95652509 -0.23244022 0.059996203
2.625468 -4.5962453 7.7111378 -0.066773705 -0.95150632 -0.30029479 0.017517962
2.7349465 -4.7411594 8.0300999 -0.15567327 -0.89610928 -0.41563681 0.016780835
2.7297766 -4.704968 7.9576302 -0.078501239 -0.89442581 -0.44027269 0.015379131
2.3578372 -4.3989396 7.1982722 -0.75273561 -0.65673047 -0.045761798 0.083411723
2.5570478 -4.4758787 7.1158447 0.21479149 -0.95745403 -0.19273414 0.089430667
2.3950603 -4.4439907 7.3365803 -0.60887653 -0.77618873 -0.1637083 0.065990463
2.2783809 -4.4562578 7.7135592 -0.60214198 -0.74043536 -0.29863107 0.023648782
2.3554857 -4.5163565 7.7220125 -0.58050776 -0.78667325 -0.21013322 0.024757393
2.4198132 -4.5737085 7.8297014 -0.47982407 -0.84539497 -0.23468313 0.017473932
2.4415066 -4.5891385 7.8469434 -0.45247617 -0.85745507 -0.24502258 0.016912241
2.4526827 -4.5970955 7.856668 -0.43811584 -0.86315149 -0.25104582 0.016409636
2.7365754 -4.7311225 8.0083866 -0.12729971 -0.89053679 -0.43673679 0.017224897
2.6476562 -4.6363587 7.8284163 -0.075290121 -0.93230265 -0.3537558 0.015982797
2.3819387 -4.4399977 7.3627024 -0.65021849 -0.74060863 -0.16945453 0.067293867
2.4579084 -4.5152602 7.4752135 -0.38117561 -0.8955974 -0.2293698 0.046903662
2.3288486 -4.3848829 7.0046806 -0.83547139 -0.54534006 0.067762896 0.14798477
2.3379257 -4.4112144 7.0035419 -0.75848818 -0.64824307 0.066907316 0.15576757
2.4614265 -4.4784894 7.0750008 -0.22360198 -0.97242802 -0.066226356 0.10964742
2.2614307 -4.287972 7.4435072 0.7749204 0.4750644 0.41690791 0.038628943
2.6599393 -4.531321 7.4733114 0.11597577 -0.95239824 -0.28193471 0.023354696
2.327836 -4.3558097 7.2282243 -0.88327312 -0.46108302 -0.085035719 0.09099336
2.3299489 -4.380609 7.0081739 -0.8504039 -0.52255017 0.061274666 0.14572044
2.3765564 -4.4512668 6.9066186 -0.44618315 -0.89292705 -0.060015265 0.17625362
2.33691 -4.4075618 6.9871635 -0.77729774 -0.62631083 0.059523016 0.15878248
2.7697756 -4.7582412 8.0672503 -0.060933601 -0.92301947 -0.37989753 0.019548757
2.7718658 -4.749505 8.0435734 -0.049406826 -0.90365261 -0.42540678 0.019268027
2.6903529 -4.6690698 7.8918128 -0.073586307 -0.9119432 -0.40366399 0.013371545
2.6873558 -4.6574726 7.8692412 -0.046516106 -0.91707492 -0.39599228 0.014606859
2.6701121 -4.6611643 7.8788867 -0.085034229 -0.91886407 -0.38530245 0.01417433
2.6678154 -4.6614184 7.8792305 -0.090294383 -0.91942447 -0.38276038 0.013965629
2.6681905 -4.661943 7.8801217 -0.090781361 -0.91924894 -0.38306674 0.013920095
2.6670909 -4.6717424 7.9023972 -0.12240506 -0.91459554 -0.38539851 0.012539017
2.6512632 -4.6535182 7.8656683 -0.097803757 -0.92393148 -0.36984468 0.015194989
2.6549592 -4.6469412 7.851357 -0.078495435 -0.92611939 -0.36897331 0.015576405
2.6527834 -4.6628075 7.8859477 -0.11963551 -0.92032099 -0.37241998 0.014451436
2.6519625 -4.6622839 7.8848014 -0.11938518 -0.92065996 -0.37166163 0.014405536
2.6517341 -4.6703963 7.904068 -0.1471383 -0.91667753 -0.37155437 0.013145521
2.6493299 -4.6691704 7.9019852 -0.14706828 -0.9172917 -0.37006333 0.013151111
2.7937918 -4.5245433 7.5425215 0.33623341 -0.89720893 -0.28629228 0.012776065
2.7846968 -4.5384426 7.5777884 0.2885783 -0.90766966 -0.30472666 0.011785899
2.7703207 -4.5565996 7.6190186 0.21382967 -0.91824406 -0.33332381 0.013008232
2.765929 -4.5641704 7.6369815 0.18712077 -0.92089379 -0.34196559 0.013333508
2.7476382 -4.5724931 7.6511388 0.14707384 -0.92929655 -0.33878791 0.013727752
2.7508647 -4.5721545 7.6518393 0.15110794 -0.92814314 -0.34017152 0.013721289
2.741287 -4.5790906 7.6678209 0.12862226 -0.9315148 -0.34020063 0.014026023
2.7429831 -4.5788293 7.6678386 0.12927468 -0.93099087 -0.34138548 0.013996791
2.7408559 -4.5791502 7.6678176 0.12803231 -0.93165809 -0.34003079 0.014026023
2.7342908 -4.5861588 7.6879139 0.10564616 -0.93462396 -0.33958346 0.01413088
2.7297177 -4.5922704 7.7065935 0.091632277 -0.93656164 -0.33831316 0.013944222
2.729167 -4.5921168 7.7060328 0.091115408 -0.93675321 -0.33792225 0.013996085
2.7309856 -4.590322 7.7010651 0.096458502 -0.93628961 -0.33772403 0.014294841
2.7246847 -4.5978713 7.7241364 0.082784854 -0.93761516 -0.33767518 0.014215481
2.6348987 -4.6468077 7.8545384 -0.1138253 -0.9272095 -0.35682818 0.015706517
2.6355479 -4.6553316 7.8737607 -0.13191696 -0.92356962 -0.36002377 0.015036141
2.6349006 -4.6628847 7.891643 -0.1560789 -0.92051226 -0.35818508 0.014144886
2.773675 -4.5295687 7.5322618 0.28526589 -0.9149617 -0.28542683 0.013134546
2.7740951 -4.5372472 7.5608063 0.27598152 -0.91455054 -0.29568821 0.011984504
2.77336 -4.5400691 7.5698886 0.27027678 -0.91480649 -0.3001326 0.011973794
2.7731254 -4.5447006 7.586411 0.25766376 -0.91530108 -0.3095696 0.012247845
2.761317 -4.5478706 7.5855079 0.24218546 -0.91960007 -0.30932495 0.012403683
2.7543073 -4.5547256 7.6014509 0.21376151 -0.92290407 -0.32024062 0.012890387
2.760359 -4.5610271 7.6247473 0.19487791 -0.92219996 -0.33402067 0.013173862
2.7514014 -4.5679646 7.6394253 0.16361356 -0.92736375 -0.33649224 0.013458005
2.7440834 -4.575151 7.6573157 0.13787925 -0.9306367 -0.33897591 0.013779231
2.738625 -4.5809188 7.6725063 0.12238889 -0.93250358 -0.33979112 0.014023828
2.7370448 -4.5817719 7.674705 0.11893908 -0.93329197 -0.33885044 0.014068017
2.7376077 -4.5807729 7.6715288 0.12211991 -0.93279904 -0.33907625 0.014008367
2.7359157 -4.5823336 7.6758456 0.11674463 -0.93360829 -0.33874223 0.014012145
2.733042 -4.5882282 7.6940651 0.10116567 -0.93515015 -0.33949926 0.013973488
2.7109976 -4.5938969 7.7062073 0.070675872 -0.94173449 -0.32884803 0.014782091
2.713588 -4.6011233 7.731689 0.062643223 -0.94023144 -0.33472472 0.014334206
2.6212618 -4.6573753 7.8833199 -0.16827993 -0.92218786 -0.34821174 0.014710922
2.7600019 -4.5343485 7.5360107 0.26304618 -0.92057955 -0.28868669 0.012825207
2.7651536 -4.5418615 7.5689497 0.25746462 -0.91808742 -0.30137596 0.011858306
2.7574694 -4.5437584 7.5666637 0.24602537 -0.92144781 -0.30067503 0.012072603
2.7586486 -4.5414338 7.5598016 0.25205687 -0.92104441 -0.29689142 0.011986685
2.7552691 -4.5487018 7.5832825 0.23488574 -0.92123657 -0.31008372 0.012325021
2.7430243 -4.5582423 7.6043925 0.19299142 -0.92746568 -0.32025257 0.012851265
2.7585981 -4.5519552 7.5968084 0.22607437 -0.92095083 -0.31739563 0.012467072
2.735688 -4.5615797 7.6099048 0.17490895 -0.93100709 -0.3203634 0.013148678
2.7504101 -4.5669379 7.636179 0.16661336 -0.92754656 -0.33451065 0.013190983
2.7446194 -4.5730524 7.6515665 0.14204116 -0.93061966 -0.33730012 0.013532417
2.7426481 -4.5772734 7.663352 0.13021046 -0.93137807 -0.3399708 0.013748407
2.7424543 -4.5774217 7.663702 0.12946866 -0.93147242 -0.33999562 0.013743374
2.7315784 -4.584765 7.6820183 0.10436356 -0.93538803 -0.33787197 0.014031753
2.7218604 -4.5892944 7.6934571 0.085640751 -0.93858439 -0.33425295 0.014291127
2.7166097 -4.597403 7.7202663 0.070942238 -0.94030243 -0.33286417 0.014362878
2.7889583 -4.5030136 7.4724054 0.335931 -0.89788967 -0.28450739 0.018966023
2.7517135 -4.5319357 7.521297 0.25390637 -0.92326123 -0.28830585 0.014608363
2.7487037 -4.5381346 7.5394812 0.24532512 -0.92449701 -0.29175472 0.012770558
2.7384748 -4.5506744 7.5744514 0.20668989 -0.92882758 -0.30750376 0.012243326
2.7299953 -4.5609846 7.6044974 0.17092302 -0.93255919 -0.31799158 0.012968916
2.7873225 -4.4704218 7.3846078 0.36107862 -0.88118106 -0.30519208 0.023746081
2.7902005 -4.4821444 7.420918 0.36692816 -0.88308924 -0.29243311 0.022089837
2.7918158 -4.4878273 7.4370537 0.36211196 -0.88592726 -0.28984097 0.020959781
2.7862003 -4.4962778 7.4527011 0.3426407 -0.89396542 -0.28883064 0.020147618
2.7465134 -4.5285797 7.5064125 0.24424131 -0.9257856 -0.28856066 0.01610956
2.7395999 -4.5354071 7.5228267 0.23536812 -0.92774785 -0.28963038 0.014505687
2.7385073 -4.5422683 7.5453362 0.22932586 -0.9281441 -0.29318619 0.012422384
2.5761945 -4.6074877 7.7699866 -0.17067528 -0.93568283 -0.30881637 0.016920038
2.7784483 -4.4640422 7.3584509 0.34342137 -0.88221079 -0.3221271 0.02411209
2.7774196 -4.4708385 7.3757401 0.33719024 -0.88795888 -0.31278071 0.023569193
2.7788723 -4.4702849 7.3757505 0.34111854 -0.8865366 -0.31255555 0.023653612
2.7924938 -4.4742208 7.4012828 0.37016895 -0.87913495 -0.30016103 0.023239655
2.7820959 -4.4793363 7.4041367 0.34779733 -0.88881117 -0.29841536 0.022396568
2.770767 -4.4907875 7.4235787 0.31629038 -0.90132564 -0.29592645 0.020989722
2.7713852 -4.497541 7.4419699 0.31213498 -0.90410316 -0.29183769 0.019935396
2.7722681 -4.50418 7.460434 0.30689144 -0.90681821 -0.28896087 0.019067695
2.7727802 -4.504447 7.461699 0.30735794 -0.90662342 -0.28907627 0.019156985
2.754914 -4.5224357 7.4996405 0.27526474 -0.9171893 -0.28808531 0.016225053
2.7832994 -4.4550953 7.3368134 0.34102255 -0.87739933 -0.33745226 0.024464725
2.7727513 -4.4629622 7.3493924 0.33240899 -0.88509631 -0.32574344 0.024338825
2.7645137 -4.4713101 7.3649135 0.30843806 -0.89712137 -0.31628969 0.023656281
2.7626464 -4.4782443 7.3833632 0.30740303 -0.90069038 -0.30701822 0.023179345
2.770915 -4.483777 7.4055772 0.322613 -0.89792913 -0.29940626 0.022185244
2.7609386 -4.4906554 7.4152913 0.29871303 -0.90650296 -0.29836702 0.021450406
2.7582002 -4.4978566 7.4319701 0.28700691 -0.91151059 -0.29457688 0.020262625
2.7580631 -4.5047069 7.4503384 0.27643237 -0.91537052 -0.29271489 0.019132212
2.7417314 -4.5206652 7.4826021 0.24237743 -0.92542022 -0.2912913 0.018464725
2.7466528 -4.530735 7.5168867 0.25988007 -0.92130834 -0.28922883 0.014224618
2.7373602 -4.5372782 7.5291772 0.24050792 -0.92627305 -0.2901279 0.01351834
2.7694085 -4.4536633 7.3197398 0.31977722 -0.88387638 -0.34132832 0.024620006
2.7699065 -4.445807 7.3009338 0.32823029 -0.87946332 -0.34468704 0.024593227
2.7634618 -4.4610782 7.3353634 0.31158292 -0.89076477 -0.33083868 0.024331985
2.7608232 -4.4721189 7.3640924 0.29993644 -0.8997547 -0.31698522 0.023355126
2.7446923 -4.4787278 7.3706999 0.27146366 -0.91204292 -0.30738446 0.023489421
2.7564056 -4.4844661 7.3952184 0.28858218 -0.90802145 -0.30367315 0.02254774
2.7306063 -4.5109081 7.4487081 0.22885804 -0.92798662 -0.29404894 0.019546274
2.7672956 -4.4222441 7.2434778 0.34555307 -0.87192905 -0.34689021 0.026206329
2.7679815 -4.4302826 7.2625289 0.34582916 -0.87248451 -0.34521446 0.0254525
2.7690573 -4.4381595 7.2819099 0.33867779 -0.87535173 -0.34504589 0.025280109
2.7571929 -4.4464035 7.2910113 0.3139374 -0.88634872 -0.34033701 0.024791004
2.7587152 -4.4531841 7.3093781 0.30884004 -0.88884735 -0.33847931 0.024643978
2.7331402 -4.4696684 7.3362103 0.25850287 -0.91452003 -0.31117421 0.024128333
2.4187953 -4.5727472 7.8257451 -0.48224539 -0.84468067 -0.23227987 0.017692547
2.7642503 -4.4103127 7.2117133 0.34526953 -0.87634033 -0.33588186 0.027252603
2.7641976 -4.4143782 7.2219081 0.34400991 -0.87531209 -0.33983222 0.02695979
2.7508636 -4.4317398 7.2504773 0.33442894 -0.88059616 -0.3357197 0.025609115
2.7540598 -4.438961 7.2708259 0.32187086 -0.88341498 -0.34055418 0.025506154
2.7404268 -4.454298 7.2975492 0.29202738 -0.89801061 -0.32908508 0.024939002
2.7308834 -4.4636049 7.3176422 0.26579267 -0.91149044 -0.31390989 0.024280546
2.7540321 -4.4065571 7.1906948 0.33916321 -0.88452464 -0.32028803 0.02789652
2.7493715 -4.4237909 7.2307553 0.34423193 -0.87747115 -0.33398917 0.026641965
2.7340331 -4.4332495 7.2393036 0.33278024 -0.88641763 -0.32174689 0.027157521
2.7405694 -4.4391074 7.2596145 0.32586101 -0.88664925 -0.32812759 0.025436291
2.735394 -4.4407368 7.2591767 0.3238678 -0.88897181 -0.32378817 0.025588175
2.7354996 -4.4480066 7.2774472 0.30682448 -0.89479619 -0.32434317 0.025141995
2.7454326 -4.4076262 7.1836367 0.33632103 -0.88956201 -0.30914015 0.027993584
2.7470689 -4.4144974 7.2051396 0.34286633 -0.88108546 -0.32577765 0.027412556
2.7393925 -4.4239206 7.2211771 0.34150198 -0.8822183 -0.32414085 0.027945286
2.7302818 -4.4245734 7.2135558 0.34126574 -0.8854239 -0.31553477 0.029321454
2.7327807 -4.4301329 7.2303958 0.33634073 -0.88557494 -0.32036221 0.027449267
2.7293248 -4.4176297 7.1924171 0.34600642 -0.8879143 -0.30312991 0.031417307
2.7129827 -4.4278564 7.2019291 0.34703678 -0.89072287 -0.29356131 0.035114389
2.7178974 -4.4092231 7.145844 0.37242296 -0.89375061 -0.25002193 0.044438288
2.7229874 -4.4133635 7.1692009 0.35676739 -0.89172238 -0.2784749 0.037216902
2.3017931 -4.4642339 7.6814585 -0.66818655 -0.70683068 -0.23220064 0.023783153
2.3224139 -4.4946818 7.7296901 -0.60930872 -0.76090252 -0.22309253 0.023284094
2.709552 -4.4067669 7.1192274 0.38254485 -0.89777482 -0.21831138 0.049770046
2.7087557 -4.4107375 7.1374626 0.37808827 -0.89390475 -0.2407977 0.047187857
2.709151 -4.4155216 7.1563296 0.37117067 -0.89063507 -0.26268148 0.04328512
2.7017977 -4.4213147 7.1648884 0.38069874 -0.88701588 -0.26128784 0.054161023
2.6917284 -4.4306006 7.1823196 0.34432113 -0.90006071 -0.26708367 0.045623038
2.7066112 -4.4000635 7.0810413 0.42570439 -0.88552701 -0.18605821 0.060875393
2.7122519 -4.3993282 7.0889354 0.41841283 -0.88800573 -0.19072631 0.060924824
2.6988401 -4.4055634 7.0960541 0.43230009 -0.8787753 -0.2021649 0.067399241
2.6940427 -4.4143977 7.1255107 0.41397363 -0.88094682 -0.22925651 0.060426123
2.6940742 -4.4190111 7.144268 0.39726183 -0.88438946 -0.24502714 0.057505116
2.2978752 -4.4554529 7.6655593 -0.68418163 -0.69010532 -0.23590292 0.02395625
2.3125694 -4.4817266 7.712636 -0.62379289 -0.74573153 -0.23402333 0.022706974
2.6909907 -4.4074135 7.0877976 0.4289583 -0.88191587 -0.19549729 0.068207413
2.6910908 -4.4075747 7.0884299 0.42811289 -0.88224626 -0.19585949 0.068064116
2.6871564 -4.4154363 7.1175113 0.41750339 -0.88093805 -0.22279824 0.063401371
2.6891665 -4.4115567 7.1051536 0.4299885 -0.87725288 -0.21339455 0.067046598
2.2726061 -4.4078155 7.6114864 -0.73948038 -0.61665761 -0.27000397 0.025859417
2.2683401 -4.4099374 7.6269217 -0.71921217 -0.63634652 -0.27892104 0.023552213
2.2785947 -4.4288411 7.6465135 -0.7058174 -0.65844041 -0.26130068 0.024019914
2.2751892 -4.4241972 7.6437888 -0.7066713 -0.65504926 -0.26744366 0.023845349
2.3097875 -4.4750314 7.6949205 -0.64712358 -0.72740412 -0.22828573 0.023330817
2.3057475 -4.473783 7.703537 -0.63136321 -0.73641652 -0.24304557 0.023249339
2.6785061 -4.4023023 7.0387869 0.47891793 -0.85517937 -0.19825715 0.082864702
2.6856937 -4.4058566 7.0677576 0.43722293 -0.8802864 -0.18420628 0.073047236
2.6737549 -4.4118543 7.0764236 0.45301676 -0.86830252 -0.20205575 0.076705657
2.6743681 -4.4154096 7.0948372 0.45638552 -0.86262506 -0.21815199 0.075514451
2.6712165 -4.4198303 7.1064329 0.44306549 -0.86810666 -0.22379415 0.072641276
2.6683581 -4.4242563 7.1182637 0.42531189 -0.87560558 -0.22896433 0.069327161
2.4225762 -4.5230527 7.5877042 -0.46935731 -0.85565811 -0.21806617 0.033949129
2.4016612 -4.5121732 7.5953336 -0.51478064 -0.82914072 -0.21800593 0.034077324
2.2753356 -4.3862534 7.5549541 -0.8067621 -0.52644944 -0.26830181 0.038191337
2.2933335 -4.4221764 7.5871348 -0.75320268 -0.61133897 -0.24279697 0.032474037
2.2744648 -4.3945851 7.5767965 -0.77968723 -0.56396043 -0.27209637 0.032872669
2.2785919 -4.4015446 7.5805678 -0.77468979 -0.57453763 -0.26412544 0.032927092
2.2743351 -4.4040046 7.5984159 -0.75325125 -0.59952462 -0.2705231 0.028668463
2.2786348 -4.4108524 7.6018701 -0.75377339 -0.6036793 -0.25960934 0.028675968
2.2678738 -4.4044437 7.6162572 -0.72580618 -0.62628436 -0.28455806 0.025217442
2.2588618 -4.3986564 7.6235552 -0.7131328 -0.63500798 -0.2969957 0.023128143
2.3010652 -4.4598174 7.6697659 -0.67523307 -0.69910818 -0.2351767 0.023944885
2.2904608 -4.4594102 7.6979795 -0.63719136 -0.72344601 -0.26573113 0.023767404
2.2911179 -4.4679308 7.7207923 -0.60638869 -0.74687821 -0.27288407 0.023102842
2.6740007 -4.4066873 7.0458694 0.45619458 -0.87031114 -0.18559375 0.081260353
2.6658683 -4.4060764 7.0364089 0.50490028 -0.83420938 -0.22174397 0.09177281
2.6757576 -4.4079394 7.058033 0.44854096 -0.87411702 -0.18636118 0.078257218
2.6734591 -4.4091597 7.0584817 0.44463971 -0.87632525 -0.18533635 0.078012533
2.6568794 -4.4245577 7.0961151 0.44875771 -0.86568743 -0.22181483 0.077525705
2.2646754 -4.343276 7.5087538 0.87568343 0.38672486 0.28917536 0.045288745
2.2757912 -4.3789234 7.5377488 -0.82589984 -0.495882 -0.26831046 0.041961793
2.2709551 -4.3760157 7.548945 -0.81434488 -0.50719994 -0.28211808 0.037058942
2.2734022 -4.393672 7.5781555 -0.77783424 -0.56528842 -0.27463225 0.03278482
2.2657833 -4.3901138 7.5921912 -0.74421215 -0.59761739 -0.29833153 0.027991945
2.2698631 -4.3970504 7.5959859 -0.75439972 -0.59373581 -0.27992651 0.028253181
2.289665 -4.4509897 7.6765389 -0.6650936 -0.70057392 -0.25854731 0.023848599
2.2788918 -4.4474931 7.6919432 -0.63262361 -0.71883696 -0.28820264 0.023493545
2.657634 -4.4084859 7.0171056 0.46844274 -0.86299264 -0.18922244 0.087397836
2.6639693 -4.4059033 7.0233688 0.48324805 -0.85234344 -0.199955 0.088906229
2.6618793 -4.4096045 7.0358377 0.47129673 -0.86004341 -0.19546019 0.086216249
2.6508703 -4.4162974 7.0449643 0.47441477 -0.85601485 -0.20535134 0.089340746
2.6478295 -4.4200249 7.0562701 0.4644202 -0.86168599 -0.20447773 0.086039133
2.6511807 -4.422235 7.0753064 0.48264435 -0.84619129 -0.2258644 0.086391382
2.6464856 -4.4278822 7.0867124 0.47961718 -0.84567308 -0.23410329 0.086956434
2.4456267 -4.502264 7.4528742 -0.42275509 -0.87888283 -0.22100478 0.051065605
2.2855849 -4.3489199 7.4462829 -0.89996612 -0.3576656 -0.24927165 0.064416923
2.2886384 -4.3682561 7.4669685 -0.8720935 -0.42389175 -0.24447627 0.063305944
2.2878702 -4.3757219 7.4846578 -0.85788149 -0.45176819 -0.24483633 0.059798606
2.2631819 -4.3392353 7.5090151 0.86710632 0.39397046 0.30481783 0.043834172
2.2740848 -4.3571744 7.5002632 -0.87095875 -0.40897435 -0.27234331 0.050439313
2.2713788 -4.3482709 7.4960518 0.87793344 0.38782835 0.28075269 0.050221134
2.2692428 -4.3628163 7.5302529 -0.83408755 -0.46796209 -0.29207781 0.041170526
2.2651405 -4.3604312 7.5372648 0.82580054 0.47602472 0.30241346 0.03857284
2.2618294 -4.3715987 7.5651731 0.77398473 0.54879773 0.31586176 0.032299966
2.2544107 -4.3742037 7.5838304 0.70443898 0.62073213 0.34417638 0.027316865
2.2625437 -4.3969522 7.612834 -0.71140629 -0.63335949 -0.30456004 0.024482872
2.2612703 -4.4049802 7.6319747 -0.68347144 -0.66304815 -0.30534241 0.021648152
2.2787476 -4.4378901 7.6690159 -0.665878 -0.69275486 -0.27694261 0.023144124
2.6418986 -4.4124308 7.0108366 0.50078171 -0.83614826 -0.22377168 0.097301319
2.6495643 -4.4134579 7.0273986 0.47987792 -0.85299909 -0.20520663 0.091674522
2.6362822 -4.4218411 7.0358191 0.47263023 -0.85595852 -0.20965616 0.093231231
2.6341019 -4.4292669 7.065434 0.48037577 -0.84684253 -0.22824731 0.0926072
2.6322684 -4.4336491 7.0776682 0.47033626 -0.85165179 -0.23124246 0.090180874
2.6235723 -4.4470701 7.1100335 0.4260841 -0.8729946 -0.23734517 0.086623289
2.6066041 -4.4688454 7.1715612 0.29460031 -0.92545307 -0.23821686 0.075160183
2.4463773 -4.4936748 7.424736 -0.42492017 -0.87958562 -0.21394382 0.054738339
2.4476707 -4.5010071 7.4480972 -0.41643268 -0.88259476 -0.21819791 0.051599711
2.291703 -4.2913485 7.3784709 0.94243717 0.19919004 0.2685805 0.062414709
2.2942398 -4.3348441 7.4032722 -0.91886997 -0.31691602 -0.23503654 0.064968854
2.3024955 -4.3633542 7.4133401 -0.88590896 -0.40818867 -0.22033457 0.065427281
2.2882729 -4.328897 7.4176612 -0.91836417 -0.30352494 -0.25392884 0.06403289
2.2874901 -4.3649697 7.4661465 -0.87655765 -0.41201502 -0.2487776 0.061781939
2.2755716 -4.3458724 7.480731 0.88222253 0.3781243 0.28054479 0.053520586
2.2703519 -4.3479657 7.50102 0.86752504 0.40202397 0.2928772 0.047383901
2.2631772 -4.3512917 7.5288234 0.81362176 0.48010173 0.32790545 0.036225822
2.2565942 -4.3628964 7.5604968 0.73512489 0.57992309 0.35111341 0.030325055
2.2631404 -4.4046679 7.6276827 -0.68260878 -0.66300458 -0.30735993 0.022346305
2.2596462 -4.4100456 7.644731 -0.65092164 -0.68964034 -0.31732827 0.021051422
2.6380966 -4.4140854 7.0088191 0.49580833 -0.83976692 -0.22128183 0.097071968
2.6406386 -4.4130106 7.0068393 0.48685867 -0.84764385 -0.21087563 0.095777906
2.6422458 -4.4086251 6.994957 0.50003558 -0.83702683 -0.2221496 0.098060407
2.6358507 -4.4182134 7.0186749 0.47645047 -0.85465491 -0.20630054 0.094334587
2.6208315 -4.4274697 7.0266361 0.48910829 -0.84074503 -0.23220871 0.10190382
2.6131654 -4.4415865 7.0653276 0.45730847 -0.85901731 -0.23012649 0.097149834
2.6076124 -4.4415498 7.0523629 0.45818794 -0.85895759 -0.22859493 0.10126627
2.5957406 -4.4730043 7.1659355 0.27965996 -0.93107766 -0.23427488 0.078177027
2.5798521 -4.4798822 7.1760063 0.21353407 -0.95071286 -0.22482948 0.079037599
2.5862737 -4.4786167 7.1783757 0.23330432 -0.94477248 -0.23016097 0.078782499
2.4396734 -4.4791112 7.3747973 -0.45464054 -0.8668111 -0.20479381 0.060893562
2.4410892 -4.4797893 7.3750563 -0.44922227 -0.86973059 -0.20437239 0.060727913
2.452667 -4.4855003 7.3780003 -0.40684915 -0.88947546 -0.20810372 0.059750255
2.4337785 -4.4801927 7.3947306 -0.47258204 -0.85744375 -0.20360853 0.059333857
2.4325693 -4.4823699 7.4080033 -0.47478959 -0.85566026 -0.20596202 0.058822822
2.3049548 -4.3319106 7.3445458 -0.94789517 -0.25622162 -0.18932833 0.066316016
2.4062033 -4.4681177 7.4158039 -0.55792588 -0.80614114 -0.19711733 0.062144201
2.2999725 -4.3282409 7.3650274 -0.94524157 -0.25330946 -0.2057977 0.06357722
2.2956524 -4.3242559 7.3850865 -0.93686014 -0.26320514 -0.23025237 0.063160293
2.292628 -4.324748 7.3987341 -0.9277693 -0.28215489 -0.2441981 0.063770652
2.2960937 -4.3497987 7.4177003 -0.90031612 -0.36555523 -0.2362209 0.063270137
2.301091 -4.3733974 7.4403648 -0.861848 -0.4527382 -0.22857416 0.066775747
2.308825 -4.3974013 7.4635029 -0.82321554 -0.52253395 -0.22197837 0.064184234
2.2781634 -4.3559923 7.4900055 0.866032 0.4137927 0.28064951 0.051804364
2.2783136 -4.3518834 7.482717 0.87219602 0.4004254 0.28095132 0.053041913
2.2781634 -4.3559923 7.4900055 0.866032 0.4137927 0.28064951 0.051804364
2.2781634 -4.3559923 7.4900055 0.866032 0.4137927 0.28064951 0.051804364
2.2651284 -4.3438973 7.5121446 0.83277035 0.44740167 0.32607555 0.039546266
2.2547927 -4.338491 7.5252366 0.73567599 0.55745441 0.3847408 0.031135393
2.2655392 -4.3926039 7.5995612 -0.67264509 -0.66046667 -0.33366504 0.025876191
2.2620618 -4.4011836 7.6223631 -0.66992515 -0.67052621 -0.31873962 0.022247819
2.6359048 -4.413764 6.9850531 0.44263023 -0.88070738 -0.1686209 0.091054268
2.6309946 -4.4105525 6.9735632 0.48258445 -0.85039479 -0.20962107 0.099306203
2.6266 -4.4179649 6.9993663 0.4848457 -0.8473345 -0.21667685 0.099235438
2.6215854 -4.423522 7.0099239 0.46835509 -0.85855705 -0.20862234 0.09811043
2.6069326 -4.4330525 7.0182109 0.47866338 -0.84573954 -0.23580927 0.10609084
2.5938618 -4.4471354 7.0439563 0.43405738 -0.8731187 -0.22194132 0.10504502
2.5966644 -4.4501047 7.0643883 0.41787422 -0.88147384 -0.21996589 0.098413184
2.5730555 -4.4777527 7.1514297 0.22486629 -0.95040792 -0.21484852 0.081808448
2.5811527 -4.4761248 7.1562405 0.24596159 -0.94345146 -0.22226608 0.080365598
2.5654836 -4.479775 7.1524253 0.1943652 -0.95864588 -0.20789476 0.082380652
2.5526888 -4.482904 7.159339 0.13396773 -0.97142982 -0.19589987 0.083158366
2.5683665 -4.4800262 7.1585383 0.19702122 -0.95720845 -0.21197785 0.081263758
2.4418907 -4.476171 7.3537979 -0.44647154 -0.87101948 -0.20491031 0.063488811
2.4250576 -4.4685659 7.3646016 -0.50797808 -0.83884788 -0.19568476 0.063571796
2.4214604 -4.4702921 7.3846345 -0.51775426 -0.83250076 -0.19716235 0.062684275
2.4051514 -4.4621892 7.3948836 -0.56857049 -0.80029964 -0.19038931 0.06319169
2.2968235 -4.3300004 7.3861032 -0.93337113 -0.27902168 -0.22575483 0.0617713
2.2958965 -4.3095932 7.3712139 0.95167536 0.20243092 0.23094535 0.062080752
2.2977924 -4.3223543 7.3708196 -0.94704211 -0.23725055 -0.21638711 0.062443525
2.2875066 -4.3610802 7.4653511 -0.871916 -0.41588002 -0.2584691 0.060893703
2.2894104 -4.3710284 7.4803743 -0.84926867 -0.45814967 -0.26237682 0.05678938
2.6088402 -4.4239874 6.9851599 0.4653517 -0.85870385 -0.21465208 0.10400053
2.6088564 -4.4277568 7.0020022 0.4723177 -0.85288101 -0.22250842 0.1038229
2.5923095 -4.4390135 7.0105605 0.45773691 -0.85783327 -0.2336642 0.10971031
2.5724463 -4.4736247 7.1312194 0.24838901 -0.94599551 -0.20831564 0.084413789
2.3851254 -4.4442153 7.369422 -0.64045936 -0.74919844 -0.16885927 0.066103704
2.3911896 -4.4479728 7.370698 -0.62026012 -0.76505995 -0.17309159 0.065333657
2.5955117 -4.4288335 6.9773483 0.45076945 -0.8669349 -0.21267532 0.1070577
2.5962875 -4.4276724 6.9729342 0.44538882 -0.87161338 -0.20474119 0.10572467
2.5991352 -4.4248786 6.9643826 0.44292438 -0.87543237 -0.19348417 0.10464056
2.5932302 -4.4327474 6.9897542 0.45833638 -0.85900611 -0.22811466 0.10837572
2.5950477 -4.4330912 6.9940872 0.45607713 -0.86157846 -0.22288163 0.10726065
2.5764289 -4.4443512 6.9988918 0.43583983 -0.86899489 -0.23428927 0.11408138
2.5754309 -4.4503565 7.0186424 0.41761807 -0.87997764 -0.22635049 0.11202208
2.5426626 -4.4734874 7.0741792 0.2186221 -0.95985651 -0.17572662 0.09994328
2.3860621 -4.440731 7.3478675 -0.64168954 -0.74981695 -0.16127308 0.067153573
2.5964241 -4.4258485 6.9447365 0.38608253 -0.91494983 -0.11750364 0.099779591
2.5835209 -4.43188 6.9651389 0.43175465 -0.87829405 -0.20539582 0.10979661
2.5965927 -4.4265704 6.9610085 0.41593629 -0.89418679 -0.16561107 0.10114392
2.5762517 -4.4392314 6.9809632 0.43790314 -0.86872423 -0.23142838 0.11314582
2.5287552 -4.4738684 7.0505447 0.19415621 -0.96698564 -0.16505189 0.10727817
2.5227413 -4.476902 7.0636768 0.14234546 -0.97775781 -0.15403716 0.10480782
2.584959 -4.4278045 6.9242201 0.38783294 -0.91603214 -0.10232659 0.1066631
2.5824482 -4.4304514 6.9369473 0.37195852 -0.92178899 -0.10932502 0.10577895
2.5681176 -4.4369597 6.9567342 0.41244891 -0.8881827 -0.20252758 0.11567716
2.5073688 -4.4768205 7.0396519 0.107238 -0.98364699 -0.14470161 0.11239585
2.5027914 -4.4786997 7.0510035 0.063793093 -0.98886567 -0.1344438 0.11015618
2.5837259 -4.4295988 6.9217844 0.36473539 -0.92846501 -0.07014858 0.10234509
2.5581348 -4.4385109 6.9429283 0.39858544 -0.89669895 -0.19251136 0.12102634
2.5694165 -4.4348955 6.941154 0.37931138 -0.91383618 -0.14500467 0.11200546
2.4939141 -4.4769516 7.0240312 0.065371566 -0.98850942 -0.13629258 0.11650629
2.5543571 -4.4387293 6.9214716 0.35296062 -0.92862308 -0.11435917 0.11999402
2.5579822 -4.4384928 6.9346814 0.36162096 -0.9221524 -0.13735083 0.1162075
2.4872329 -4.4747639 6.9937353 0.104296 -0.9822219 -0.15608487 0.12930349
2.5446315 -4.4424152 6.8977952 0.30872512 -0.95027626 -0.040789697 0.11467827
2.5483458 -4.441824 6.9161062 0.31038243 -0.94851881 -0.063045859 0.11304178
2.3816798 -4.424777 7.1727662 -0.6624583 -0.74830037 -0.034576081 0.088101335
2.3650472 -4.4078579 7.1893797 -0.73594624 -0.67530304 -0.048466627 0.085277066
2.3878958 -4.4321604 7.1523046 -0.63566786 -0.77163148 -0.022610502 0.095417827
2.3742456 -4.4188876 7.1554427 -0.69606239 -0.71764231 -0.022060897 0.091679029
2.4686763 -4.4748616 7.0062928 -0.058340542 -0.99328995 -0.099857077 0.12503208
2.4540999 -4.4760804 7.0248637 -0.19225571 -0.97848648 -0.074846491 0.12347127
2.3917985 -4.4501524 7.0361185 -0.61352825 -0.78964001 0.0071969158 0.13131762
2.4713831 -4.4635639 6.8681097 0.096774846 -0.99233335 0.076870866 0.129666
2.4523048 -4.4625735 6.903141 0.027709147 -0.99667084 -0.0766773 0.14586376
2.4281211 -4.46703 6.9242458 -0.094041966 -0.97934526 -0.17899448 0.16230616
2.4163401 -4.4684758 6.946372 -0.24503526 -0.96307594 -0.11154571 0.16003524
2.3930218 -4.4554639 6.9930787 -0.55886108 -0.82923257 -0.0069058533 0.14653096
2.4585268 -4.4642868 6.8789153 0.037276629 -0.99676901 0.071147732 0.13440266
2.4522328 -4.4638271 6.8890624 0.001397325 -0.99846315 0.05540143 0.13536373
2.4125559 -4.465199 6.9313197 -0.23496003 -0.96466178 -0.11925349 0.1614494
2.3883989 -4.4569378 6.9593959 -0.49390605 -0.86903793 -0.028807376 0.15937759
2.3865461 -4.4498291 7.0008206 -0.6186657 -0.78565168 0.0020645082 0.14562617
2.3888886 -4.4498978 7.0172234 -0.6321159 -0.77487254 0.0014369823 0.13922152
2.3831363 -4.4452596 7.0158939 -0.66991448 -0.74242157 0.004981197 0.1423448
2.4460471 -4.4662013 6.871665 -0.021399576 -0.99142122 0.12894182 0.12976086
2.4377995 -4.4655132 6.883523 -0.063205332 -0.99294096 0.10036594 0.13735156
2.3755956 -4.442421 6.9862118 -0.65590632 -0.75471479 0.013873424 0.15182379
2.3723369 -4.4373746 6.9994063 -0.69726938 -0.71655941 0.018922022 0.14963077
2.3728225 -4.4367971 7.0041513 -0.70600349 -0.70801532 0.016533304 0.14797996
2.3779461 -4.439755 7.0232172 -0.70510101 -0.70896828 0.014018973 0.14094533
2.3717909 -4.4473643 6.9360213 -0.53579664 -0.84400356 -0.024082903 0.16866404
2.3729835 -4.4470577 6.9381642 -0.54081815 -0.84097493 -0.016638868 0.16614909
2.3679383 -4.4438658 6.9470487 -0.59197724 -0.80589926 -0.0094518848 0.16688672
2.3691347 -4.443644 6.9495697 -0.59695309 -0.80227309 -0.002196518 0.165434
2.3695617 -4.4413195 6.966948 -0.63878369 -0.76921576 0.01620312 0.15830968
2.700464 -4.3987045 7.0612798 0.43911418 -0.88086247 -0.17680493 0.067215718
2.6138437 -4.4142251 6.9626741 0.49873784 -0.8326453 -0.24075384 0.10758023
2.6301396 -4.4103861 6.9712977 0.48366818 -0.8496657 -0.2100793 0.099438392
2.4828274 -4.4589734 6.8773894 0.16795368 -0.98553634 -0.022575103 0.13663077
2.7158558 -4.4470854 7.2581878 0.30497932 -0.90181983 -0.30611873 0.025630014
2.4693103 -4.4618034 6.8828773 0.10980942 -0.99387521 -0.012408471 0.14222957
2.4179149 -4.4673162 6.9331694 -0.18957144 -0.97175461 -0.14055482 0.1620248
2.7885871 -4.5319624 7.5586834 0.30845511 -0.90549141 -0.291446 0.01211929
2.7881858 -4.5393162 7.5840273 0.29174262 -0.90600842 -0.30665118 0.01199565
2.3825433 -4.4527817 6.9538136 -0.52695179 -0.84947944 -0.026580194 0.16134201
2.3799472 -4.4489307 6.9692192 -0.59029675 -0.80718124 -0.002861945 0.15735501
2.3881545 -4.4519753 6.9894347 -0.59076482 -0.80682969 -0.0047690626 0.14888425
2.770251 -4.5498199 7.5993352 0.24102591 -0.91700411 -0.31782067 0.012696699
2.777123 -4.5564237 7.6236167 0.22058795 -0.91537833 -0.33678403 0.013077839
2.3905952 -4.4495711 7.0384688 -0.63418585 -0.7731666 0.0046609784 0.13214022
2.3900692 -4.4494801 7.0357909 -0.63832134 -0.76974875 0.0057233744 0.13327974
2.3902919 -4.446414 7.0561352 -0.62503654 -0.7805208 0.010797816 0.12484905
2.3902748 -4.4446688 7.0701647 -0.63204801 -0.77489865 0.0068812151 0.12012763
2.3934264 -4.4469538 7.0789733 -0.62220824 -0.78284788 0.0024627228 0.11846448
2.7249372 -4.5935411 7.710124 0.088690892 -0.93795544 -0.33522159 0.014361558
2.3926415 -4.4377747 7.2990489 -0.61463302 -0.77534723 -0.14513066 0.067485824
2.3819878 -4.4296317 7.2874012 -0.65658641 -0.74259865 -0.13206637 0.069331467
2.398277 -4.4418745 7.3006754 -0.59531277 -0.78917652 -0.15100701 0.067223944
2.7288258 -4.5995307 7.7308626 0.085447229 -0.93571812 -0.34224319 0.014015164
2.3749535 -4.4288006 7.3176999 -0.68742931 -0.71167505 -0.14477417 0.06983728
2.3681567 -4.4241385 7.3192906 -0.71596026 -0.68330747 -0.14314951 0.070739701
2.3899026 -4.4393525 7.3283257 -0.62840444 -0.76200324 -0.15639341 0.067351572
2.3887827 -4.4388881 7.3309765 -0.63396645 -0.75734997 -0.15654896 0.06782335
2.3846862 -4.4359975 7.3259144 -0.65043944 -0.74411374 -0.15239181 0.068856679
2.2979705 -4.3753409 7.4508467 -0.86140263 -0.45134529 -0.23296556 0.066193342
2.3075571 -4.3864999 7.4445143 -0.84151065 -0.49301222 -0.22090442 0.066335253
2.2955141 -4.3809962 7.473762 -0.84630942 -0.47492835 -0.24125379 0.062181048
2.4249418 -4.5060892 7.5219884 -0.4713026 -0.85932654 -0.19857423 0.042719793
2.2666912 -4.3506808 7.5170479 0.8492831 0.43065801 0.30537179 0.04155856
2.2593379 -4.3549724 7.5430136 0.7727415 0.53120309 0.34741023 0.033118095
2.2791603 -4.4169521 7.6131206 -0.74644816 -0.6162684 -0.25105456 0.025215175
2.2836018 -4.432373 7.6412563 -0.71453977 -0.65356088 -0.24958183 0.024319274
2.3029418 -4.4588275 7.6598749 -0.68396217 -0.69218779 -0.23037325 0.023943568
2.304553 -4.4604411 7.6599789 -0.68182486 -0.69470078 -0.22914121 0.023842141
2.307868 -4.4684653 7.677803 -0.66427195 -0.71195048 -0.22774822 0.023575069
2.3136315 -4.4759722 7.6852584 -0.65444601 -0.72278428 -0.22199835 0.023930816
2.320224 -4.4842701 7.6930399 -0.6453408 -0.73280823 -0.21570194 0.024752298
2.319874 -4.490509 7.7199712 -0.62246585 -0.7510252 -0.22022131 0.023614183
2.3190479 -4.4854889 7.7042933 -0.63294399 -0.74157161 -0.22238126 0.023684513
2.6620169 -4.4302759 7.1272287 0.45902523 -0.853082 -0.24808663 0.078452446
2.4546075 -4.4744358 6.9825902 -0.08692617 -0.99095118 -0.10227238 0.13784929
2.4732797 -4.4748402 6.993278 0.0053709657 -0.9926672 -0.12075998 0.1295903
2.4745183 -4.4764481 7.0139017 -0.035875481 -0.99334222 -0.10947249 0.12271765
2.3967147 -4.4576626 6.9914942 -0.53603828 -0.84407383 -0.01422675 0.14649168
2.3915823 -4.45225 7.014328 -0.60859376 -0.79348171 -0.00067917886 0.13952681
2.3937016 -4.452755 7.0264578 -0.60936028 -0.79288983 -0.0024055252 0.13434322
2.3936594 -4.4529247 7.023592 -0.60936642 -0.79287934 -0.0038661184 0.13466856
2.3917716 -4.4510674 7.0307016 -0.62575036 -0.78002316 0.00053567154 0.13393931
2.4191937 -4.4609637 7.3409157 -0.52659607 -0.82939821 -0.1865346 0.064613387
2.3880668 -4.4426599 7.3529887 -0.63276637 -0.75672174 -0.16425262 0.066067904
2.4050806 -4.4543667 7.356288 -0.57576185 -0.7981028 -0.17756771 0.064447597
2.3166552 -4.398447 7.4325223 -0.82873368 -0.52033597 -0.20603621 0.065077893
2.4311571 -4.5143991 7.5320115 -0.45277759 -0.86657304 -0.20986569 0.040815175
2.7754903 -4.5702863 7.6601014 0.17716828 -0.91887218 -0.35254127 0.013802921
2.5198548 -4.6267776 7.8627753 -0.33042392 -0.8998974 -0.28461331 0.016809521
2.405617 -4.5174932 7.6046047 -0.50419629 -0.83485198 -0.22092593 0.032713652
2.3888257 -4.5047174 7.598 -0.54113632 -0.81230092 -0.21757463 0.035025597
2.6572354 -4.4110022 7.0378065 0.49637946 -0.84082937 -0.21590146 0.091672786
2.6176686 -4.4176707 6.9813275 0.49014977 -0.84090191 -0.22942801 0.10605086
2.6219003 -4.4194965 6.9932227 0.47166964 -0.85736966 -0.20602183 0.10000247
2.5222497 -4.4797354 7.0875883 0.10329665 -0.98305297 -0.15144838 0.098786168
2.5880625 -4.4265027 6.9467263 0.43252537 -0.88295132 -0.18253423 0.11088938
2.5529687 -4.4460754 6.9656692 0.39484188 -0.89181393 -0.22083424 0.12080015
2.3637855 -4.40662 7.1889739 -0.74252141 -0.66800863 -0.049258716 0.085393161
2.5434129 -4.4430766 6.9268847 0.33460423 -0.93397683 -0.1254085 0.12177237
2.5370753 -4.4446578 6.924912 0.33756667 -0.93022937 -0.14395148 0.12613989
2.5347192 -4.445466 6.9244828 0.33094126 -0.93294299 -0.14175782 0.12589106
2.5288706 -4.4476418 6.9206128 0.29661572 -0.94939649 -0.10327379 0.1235576
2.5340528 -4.4458427 6.9200444 0.31274119 -0.94356674 -0.10897114 0.12297077
2.5207109 -4.4515376 6.9331617 0.32274297 -0.92751545 -0.18855271 0.13341916
2.5230916 -4.4507565 6.9333701 0.32498586 -0.92741424 -0.1851676 0.13244569
2.5181539 -4.4523072 6.9328489 0.31779683 -0.92854548 -0.19185528 0.13447168
2.5265346 -4.4488325 6.9060316 0.24254964 -0.96996337 -0.01846021 0.11436724
2.5090432 -4.4538908 6.9235749 0.28051227 -0.94638604 -0.16020717 0.13649274
2.4853635 -4.4586549 6.9136729 0.218042 -0.95840305 -0.18417743 0.14590971
2.3866618 -4.4423499 7.0619411 -0.64267856 -0.76601863 0.013406807 0.12254069
2.3861363 -4.4417272 7.0619745 -0.6441561 -0.76476592 0.014001723 0.12210371
2.3929095 -4.4477954 7.0653591 -0.61840868 -0.78583217 0.0062060701 0.12254316
2.3827426 -4.4383469 7.0622625 -0.66215861 -0.74920475 0.015434575 0.12156512
2.3737481 -4.4290113 7.0628958 -0.71409512 -0.69992054 0.013392071 0.12096771
2.4869056 -4.4566469 6.8974848 0.20390917 -0.97129911 -0.12247089 0.142351
2.4678049 -4.4615569 6.9091029 0.1330117 -0.97703934 -0.16643924 0.15037873
2.390758 -4.4483867 7.0523152 -0.63723081 -0.77064264 0.0068438831 0.12875348
2.3902359 -4.4485154 7.0461011 -0.63985163 -0.76848406 0.0047104447 0.13045354
2.3885717 -4.4459019 7.0496979 -0.63774133 -0.77019709 0.0090805013 0.12703584
2.3888283 -4.446116 7.0496755 -0.63634598 -0.77135408 0.008754706 0.12703584
2.3739169 -4.4327483 7.0370679 -0.71288437 -0.70109391 0.016221477 0.13125721
2.3739605 -4.4327669 7.0377026 -0.71309036 -0.70088404 0.016239233 0.13125721
2.3739169 -4.4327483 7.0370679 -0.71288437 -0.70109391 0.016221477 0.13125721
2.3739605 -4.4327669 7.0377026 -0.71309036 -0.70088404 0.016239233 0.13125721
2.3890784 -4.4499269 7.0183363 -0.63315928 -0.77402133 0.00056291389 0.13866082
2.389534 -4.4495316 7.0327034 -0.6484924 -0.76121974 0.0014438488 0.13481343
2.4369206 -4.463438 6.8956523 -0.052767366 -0.99846536 -0.016808582 0.14792867
2.3733602 -4.4398632 6.9888282 -0.67501843 -0.73763067 0.015848439 0.15185335
2.4253056 -4.4631114 6.8920064 -0.13097727 -0.98913431 0.066770278 0.14163302
2.3695457 -4.4419255 6.9602346 -0.6254524 -0.78023785 0.0061811097 0.16127998
2.4188654 -4.4619179 6.9021177 -0.16824655 -0.98559988 0.01690994 0.14796676
2.4320703 -4.4637814 6.9068274 -0.082814589 -0.99477714 -0.059667405 0.15098372
2.4457958 -4.4638157 6.9124432 0.0019048243 -0.99084926 -0.13495983 0.15233454
2.3593485 -4.4325271 6.957737 -0.68184882 -0.73142833 0.0097340932 0.1646664
2.3738399 -4.447742 6.9509897 -0.56532705 -0.82473612 -0.014685386 0.16324
2.4484107 -4.4671898 6.9246745 0.028651858 -0.98201877 -0.1865963 0.15642855
2.4610083 -4.4678483 6.9324174 0.093481287 -0.97765583 -0.18828261 0.15243638
2.4855604 -4.4584785 6.913662 0.22712897 -0.95297098 -0.20064592 0.14721362
2.372241 -4.4390574 6.9857254 -0.67091084 -0.74135929 0.016281364 0.15270735
2.3685467 -4.437077 6.9780083 -0.68165505 -0.73146611 0.017426992 0.15645839
2.3723567 -4.4434891 6.9696112 -0.62737054 -0.77859682 0.013899177 0.15700695
2.4686377 -4.4686961 6.9399166 0.13983698 -0.96782655 -0.20918277 0.15266517
2.4934278 -4.4605665 6.9326463 0.25117418 -0.94465542 -0.21103942 0.14550172
2.4873619 -4.4620557 6.9313273 0.23361227 -0.94808888 -0.21576092 0.1475286
2.3833051 -4.4480619 6.9898052 -0.62183321 -0.78314418 0.0029390485 0.149693
2.5093567 -4.4571705 6.9399776 0.30217326 -0.9281581 -0.21728756 0.13938358
2.389571 -4.4517474 7.0038366 -0.60583711 -0.79558694 -0.0016680895 0.14421536
2.4719319 -4.4715323 6.9557295 0.12603848 -0.97450358 -0.18562634 0.14952642
2.5013514 -4.4627438 6.9512248 0.25066739 -0.94854516 -0.19346292 0.13769044
2.5208893 -4.4551206 6.9488235 0.3234452 -0.92257637 -0.21032381 0.13246797
2.5356839 -4.4474063 6.9409766 0.35952502 -0.9118135 -0.19833782 0.12842631
2.5369809 -4.4469557 6.9412255 0.35905805 -0.9128871 -0.19420217 0.12780678
2.536767 -4.4471707 6.9419394 0.36163595 -0.9108144 -0.19908932 0.12842631
2.4941964 -4.4697118 6.971035 0.19545992 -0.96264797 -0.18736154 0.13656569
2.5124428 -4.4618897 6.9608936 0.28965423 -0.93318301 -0.21276726 0.13556157
2.522037 -4.4578028 6.959125 0.336822 -0.91031289 -0.24058546 0.13670146
2.5371599 -4.4512029 6.9582944 0.36474344 -0.90471005 -0.22014077 0.12758423
2.5382478 -4.4507346 6.9582539 0.36456558 -0.90536737 -0.21771966 0.12640353
2.5259709 -4.4559441 6.9583721 0.35356459 -0.90140682 -0.24991561 0.13712192
2.3958888 -4.4537525 7.0535784 -0.63180935 -0.77512246 0.0014673322 0.130546
2.3893657 -4.4494214 7.0321965 -0.64990789 -0.76001257 0.00076242205 0.13508996
2.3888564 -4.4486504 7.0303874 -0.64289397 -0.76594788 0.0033350093 0.13455392
2.5169137 -4.4622626 6.9672832 0.3056297 -0.92464626 -0.2271999 0.13555275
2.5256903 -4.460629 6.9738851 0.32152912 -0.9202773 -0.22295453 0.12974095
2.5260007 -4.4607892 6.9745359 0.32795486 -0.91579551 -0.23187119 0.13142423
2.5525687 -4.4463162 6.9659095 0.39333096 -0.89259034 -0.22039348 0.12080015
2.5519657 -4.4472141 6.9682007 0.41404375 -0.87357676 -0.25579578 0.12563127
2.3918855 -4.4497304 7.0619965 -0.65749902 -0.7534315 0.0059973607 0.12817329
2.3925488 -4.4508929 7.049046 -0.6403023 -0.76811063 0.0043620584 0.13037972
2.3964148 -4.4539824 7.0499539 -0.62075919 -0.7840004 0.0011990217 0.13012543
2.3308256 -4.3722219 7.0292754 -0.86759609 -0.49475572 0.049937464 0.13272461
2.3210649 -4.3658137 7.0172787 -0.86713248 -0.49395382 0.063959882 0.14106163
2.3209646 -4.3664079 7.0198221 -0.86417055 -0.49859884 0.067885831 0.13987567
2.5145738 -4.46665 6.9825664 0.26447091 -0.94251955 -0.2042354 0.12952988
2.3921928 -4.4481072 7.0666761 -0.63804156 -0.76999778 0.0025131239 0.12409696
2.3207514 -4.3565254 7.0303102 -0.88378119 -0.46465138 0.055044912 0.13421071
2.5385251 -4.4603171 6.9925961 0.33620101 -0.91683847 -0.21535099 0.12122483
2.5428591 -4.4590211 6.9941397 0.34920409 -0.91124111 -0.21839437 0.12055051
2.5520096 -4.4523711 6.9845872 0.3934266 -0.88795835 -0.23821302 0.1218837
2.3878744 -4.4427452 7.0889063 -0.67162889 -0.74087113 -0.0049583977 0.11886279
2.3933799 -4.4477248 7.0804567 -0.63464874 -0.77280056 -0.00047293416 0.12038239
2.3891389 -4.4425745 7.077486 -0.63448077 -0.77291179 0.006441961 0.11701239
2.3883173 -4.4418907 7.0773549 -0.63861096 -0.76949519 0.0072899358 0.11701239
2.3741686 -4.4294391 7.0632157 -0.71223718 -0.70181859 0.012996668 0.12096771
2.374656 -4.4298887 7.0643811 -0.71031857 -0.70376617 0.012677739 0.12079572
2.321161 -4.3519955 7.0412383 -0.89173108 -0.45037249 0.044500556 0.13063543
2.5582678 -4.4558249 7.0080142 0.37914559 -0.89916331 -0.21852684 0.1157094
2.3923659 -4.44415 7.1029062 -0.6373331 -0.77056551 -0.0059451703 0.11354364
2.3912313 -4.4425507 7.0985718 -0.63150978 -0.77536613 0.0016428075 0.11249653
2.3880835 -4.4408069 7.0937562 -0.65266019 -0.7576499 -0.0011301121 0.11454011
2.3892536 -4.4416986 7.0942664 -0.64575166 -0.76354659 -0.0011821488 0.11447225
2.3908334 -4.4422936 7.0930276 -0.62599176 -0.77980655 0.0060039666 0.11213205
2.3907986 -4.4420419 7.0933843 -0.6264745 -0.77942294 0.0054460289 0.1117062
2.3912537 -4.4441333 7.084764 -0.63254392 -0.77452391 0.0009266031 0.11591057
2.3928235 -4.4441671 7.0901384 -0.61483991 -0.7886309 0.0057599274 0.11314348
2.3223736 -4.3476453 7.0522318 -0.90309727 -0.42849368 0.02843317 0.12772356
2.6219041 -4.4170284 6.9891801 0.49849036 -0.83338517 -0.23869765 0.10557079
2.3937271 -4.4432063 7.1148686 -0.62206614 -0.78294754 -0.0051782597 0.10907495
2.3925769 -4.4422178 7.109189 -0.62083143 -0.78394228 0.0016766695 0.10855781
2.3922868 -4.4420028 7.1084981 -0.62198156 -0.78303021 0.0016047154 0.10871924
2.3919857 -4.4415255 7.1103721 -0.62350488 -0.78181839 0.0012747266 0.10812536
2.3916943 -4.4409251 7.105773 -0.61636114 -0.78743976 0.0061270683 0.10753363
2.3911784 -4.4406438 7.1050105 -0.61960918 -0.78488809 0.0059346948 0.10774641
2.3907433 -4.4405594 7.1046829 -0.62435305 -0.78112149 0.0057006539 0.10807859
2.3900065 -4.4397807 7.1042542 -0.62561321 -0.78010684 0.006434653 0.10784183
2.3943799 -4.442091 7.1300921 -0.62079996 -0.78385991 -0.013076142 0.10583729
2.3913713 -4.4389615 7.1266394 -0.62853914 -0.77774775 -0.0068507185 0.10410292
2.3984332 -4.4465256 7.1230826 -0.60505438 -0.79609394 -0.011984331 0.10893756
2.5961025 -4.4432335 7.0326109 0.45520905 -0.85940564 -0.23282325 0.10781787
2.6194444 -4.4327106 7.0438395 0.4802064 -0.84651476 -0.22981429 0.10052416
2.3824434 -4.4295521 7.1723647 -0.68011349 -0.73107356 -0.054563187 0.092599884
2.3809366 -4.4262562 7.150166 -0.66789538 -0.74400508 -0.01929261 0.095530428
2.377599 -4.422781 7.1493883 -0.67973268 -0.73328209 -0.016150793 0.093854807
2.3614967 -4.406249 7.1428294 -0.75836509 -0.65158033 -0.018039661 0.093777984
2.3818955 -4.4291077 7.1888771 -0.6830796 -0.72701937 -0.069606826 0.088998601
2.3739364 -4.4181309 7.1635952 -0.69705766 -0.71650034 -0.027162636 0.090439931
2.6203604 -4.4415789 7.0836663 0.43731171 -0.87071836 -0.2249622 0.088881105
2.3870184 -4.4338355 7.1950393 -0.65860361 -0.7487402 -0.075029053 0.088188626
2.6043773 -4.4542871 7.0992837 0.39515793 -0.89012694 -0.22698943 0.090183809
2.6325119 -4.4386659 7.0962954 0.4590846 -0.85582787 -0.2383275 0.088809974
2.3881943 -4.4350157 7.2196255 -0.65151441 -0.75241828 -0.096931651 0.082277469
2.3876507 -4.433042 7.2042079 -0.65227854 -0.75383776 -0.079128824 0.08515019
2.3702924 -4.414227 7.1984491 -0.71868372 -0.69265449 -0.061020419 0.084184252
2.3689997 -4.4123764 7.1831055 -0.72041154 -0.69213486 -0.044232719 0.086581983
2.3892167 -4.4377179 7.2352862 -0.64671993 -0.75383502 -0.11612938 0.07910803
2.3927655 -4.436357 7.217999 -0.62682164 -0.77406764 -0.088960081 0.081771903
2.3954365 -4.4403882 7.249754 -0.61589086 -0.77807546 -0.12360025 0.076405257
2.3946278 -4.4387426 7.2349343 -0.61833 -0.77848899 -0.10780948 0.078999981
2.3925097 -4.4365268 7.2394571 -0.62584645 -0.77208543 -0.11045487 0.077091947
2.3969395 -4.4388299 7.2315063 -0.60608613 -0.78888065 -0.10162165 0.078491889
2.3899658 -4.4331508 7.2225223 -0.63609189 -0.7663185 -0.090239123 0.079612166
2.3875277 -4.431088 7.2307181 -0.64458215 -0.7584644 -0.096154355 0.07761433
2.3728809 -4.4167414 7.2147331 -0.70491695 -0.70529115 -0.075209461 0.079891101
2.6668646 -4.4314728 7.1430216 0.39127359 -0.8887772 -0.23870504 0.063100137
2.6267254 -4.4517956 7.1316743 0.4162361 -0.87487596 -0.24766828 0.085418873
2.6629648 -4.4298892 7.1297073 0.41008556 -0.88172954 -0.23320138 0.068061948
2.4004169 -4.4431157 7.2644854 -0.59300208 -0.79376411 -0.13522966 0.073116682
2.3973658 -4.4398236 7.2469077 -0.60393482 -0.78835058 -0.11732902 0.075867034
2.4058404 -4.4437013 7.2485971 -0.56550765 -0.8161093 -0.11902381 0.074066207
2.6695671 -4.4338627 7.1570897 0.36791143 -0.89706761 -0.24476698 0.057408359
2.679719 -4.4241743 7.1386824 0.42759165 -0.87027985 -0.24449617 0.067583673
2.7139931 -4.4065285 7.1262484 0.37887004 -0.89850575 -0.22168648 0.052210826
2.4020817 -4.4422445 7.2619472 -0.58239305 -0.80247349 -0.1298255 0.072408199
2.6793611 -4.4333525 7.1729097 0.34864086 -0.90220606 -0.25391683 0.051832967
2.6813109 -4.4341145 7.1807194 0.32847756 -0.90759778 -0.26147428 0.041714866
2.6880958 -4.4334612 7.1883602 0.32823193 -0.90532345 -0.26954272 0.039246488
2.6781237 -4.4428177 7.2022996 0.33935916 -0.90224212 -0.26607239 0.054474652
2.6866989 -4.4447546 7.2189307 0.31805342 -0.90831566 -0.27167019 0.04357798
2.4965537 -4.4803452 7.2274337 -0.17680106 -0.97156733 -0.15747471 0.079583429
2.6826227 -4.4502139 7.2321429 0.29751441 -0.91527617 -0.27157816 0.03812103
2.6915028 -4.447186 7.2314954 0.31474739 -0.90748513 -0.27821732 0.039373118
2.7086718 -4.4389763 7.2282267 0.32786864 -0.89748693 -0.29499039 0.031620555
2.6824 -4.4547696 7.2419448 0.312823 -0.9101634 -0.27155906 0.046666943
2.5670536 -4.4855843 7.2140894 0.11665884 -0.96969026 -0.21468922 0.084619336
2.5386217 -4.4869013 7.2208948 0.0021186008 -0.98209882 -0.18835443 0.084841929
2.5036287 -4.4832196 7.2498317 -0.16715308 -0.96848637 -0.18464568 0.07755433
2.5171883 -4.4859185 7.2430015 -0.10755667 -0.97608805 -0.18890141 0.079764783
2.6943941 -4.4497967 7.2426047 0.31009394 -0.90830839 -0.28074485 0.038417004
2.5284128 -4.4916186 7.2732835 -0.087261766 -0.97231656 -0.21676223 0.073368572
2.5199156 -4.4882708 7.2587652 -0.11015769 -0.97280675 -0.2037458 0.077411719
2.5626075 -4.4891653 7.2370644 0.070321806 -0.9726035 -0.22157907 0.081544787
2.6712658 -4.4869981 7.3245063 0.26828682 -0.92268038 -0.27691707 0.045135636
