# .PCD v0.7 - Point Cloud Data file format
VERSION 0.7
FIELDS x y z
SIZE 4 4 4
TYPE F F F
COUNT 1 1 1
WIDTH 1345
HEIGHT 1
VIEWPOINT 0 0 0 1 0 0 0
POINTS 1345
DATA ascii
0.19028971 -0.1929317 -0.044084623
0.19701265 -0.200095 -0.048917063
0.20248832 -0.20704781 -0.053327546
0.20234045 -0.20702988 -0.053321484
0.20244676 -0.20695609 -0.053269785
0.19263485 -0.20852439 -0.054619174
0.20536821 -0.2134261 -0.057733111
0.19180076 -0.20838679 -0.054478399
0.19682591 -0.21508485 -0.058957387
0.20169628 -0.22185808 -0.063868351
0.084700428 -0.069280848 0.014967859
0.11887771 -0.12552509 -0.0034090132
0.12786216 -0.1157497 0.001479432
0.20184346 -0.19145712 -0.043340199
0.19446824 -0.18378899 -0.038377948
0.21685395 -0.19686882 -0.046242241
0.20726731 -0.19850154 -0.047545057
0.2129707 -0.20565155 -0.052148454
0.21288802 -0.20566458 -0.052159905
0.21275869 -0.20564398 -0.05217373
0.22289096 -0.20417891 -0.050748888
0.22213329 -0.2040146 -0.050634515
0.21759006 -0.21253459 -0.05651588
0.22903495 -0.21147917 -0.055200476
0.2188278 -0.2127526 -0.056639835
0.23152174 -0.21415785 -0.056815851
-0.10431793 0.27699739 -0.10756528
0.10145491 -0.068123914 0.015980655
0.11165945 -0.08912237 0.010026604
0.13840729 -0.11267858 0.0031404234
0.20535102 -0.18216339 -0.037575334
0.21742274 -0.18095452 -0.036705073
0.21795219 -0.18110034 -0.036832586
0.19904064 -0.17443813 -0.033056155
0.21024832 -0.17295575 -0.032302935
0.22703229 -0.19539839 -0.04503664
0.21161263 -0.18964694 -0.041991562
0.23595457 -0.19366673 -0.043550491
0.24167046 -0.20108454 -0.047655147
0.23176235 -0.20256108 -0.049320936
0.23289505 -0.20285016 -0.0494247
0.24576038 -0.20563531 -0.050111715
-0.093730748 0.28561676 -0.10925546
0.11855043 -0.069814175 0.016245591
0.11702566 -0.070625171 0.016181506
0.1326617 -0.089324921 0.010024447
0.14054896 -0.10476006 0.0054606497
0.15538663 -0.10110901 0.0062407367
0.14481467 -0.088936225 0.01062952
0.22143723 -0.17164549 -0.031328958
0.21846007 -0.17066436 -0.030859068
0.23504207 -0.17730702 -0.034182813
0.24150917 -0.18512683 -0.038304467
0.2309444 -0.18635091 -0.03945332
0.23044454 -0.1862032 -0.039394476
0.22447704 -0.17852223 -0.0351317
0.22514901 -0.17874844 -0.03526555
0.2455764 -0.19219172 -0.042267501
0.23717649 -0.19402574 -0.043674488
0.265037 -0.200517 -0.045939721
-0.075029463 0.28355682 -0.094575427
0.12415139 -0.05988884 0.018207094
0.13785978 -0.06094972 0.018591153
0.16275078 -0.08718048 0.010190729
0.25693548 -0.17525122 -0.032370768
0.24567366 -0.17606255 -0.033181533
0.26400989 -0.18258838 -0.036042485
0.2520439 -0.18256412 -0.036576029
-0.060153648 0.29266265 -0.096658483
-0.063489243 0.29501057 -0.10011309
0.2685501 -0.17440745 -0.03149249
0.27806622 -0.18817055 -0.038228258
0.2896468 -0.19981965 -0.043859635
0.30274293 -0.20620023 -0.046772238
0.26558608 -0.15081513 -0.019703209
0.27596226 -0.16012995 -0.023817841
0.28898484 -0.15819703 -0.022632409
0.29425591 -0.17733051 -0.031962354
0.30332047 -0.18796176 -0.036805581
0.31558692 -0.20242509 -0.044629015
0.30717322 -0.19736455 -0.042075772
0.31989604 -0.20620795 -0.04697793
-0.03191733 0.29380023 -0.082414448
0.30924803 -0.17453632 -0.0302861
0.29958791 -0.1627928 -0.024570756
0.31611854 -0.18210351 -0.033927936
0.32581091 -0.19377616 -0.039827619
0.32843566 -0.18446916 -0.034776859
0.32821688 -0.19021401 -0.037888929
0.32795098 -0.19012412 -0.037859727
0.34674937 -0.19975296 -0.042030413
-0.038662989 0.31984684 -0.098097749
-0.03299186 0.31601459 -0.096175097
-0.022222213 0.32004732 -0.0920972
0.30814093 -0.15554829 -0.021143638
0.32505423 -0.17246795 -0.028850973
0.33814606 -0.17711386 -0.030547675
0.34185189 -0.16781782 -0.025782686
0.34686962 -0.17540029 -0.029379498
0.3426435 -0.18442538 -0.034195706
-0.026907593 0.32298958 -0.094028771
0.33113316 -0.15537857 -0.020386674
0.34124905 -0.14512649 -0.015304208
0.34161338 -0.15748855 -0.021005426
0.35587201 -0.16775791 -0.025339834
0.3479031 -0.15328592 -0.018965233
0.3668668 -0.17654313 -0.029160507
0.015535768 0.31238675 -0.073643617
0.024070285 0.3032802 -0.065131053
0.24825406 -0.041806281 0.017783893
0.24845636 -0.046937391 0.017261403
0.25311622 -0.057166621 0.014779253
0.35190138 -0.14416564 -0.014724735
0.37096301 -0.16739282 -0.024376791
0.3808921 -0.16671607 -0.023012452
0.37114197 -0.15265961 -0.017418239
0.36422989 -0.1595103 -0.02097014
0.37658077 -0.17588535 -0.02805369
0.37951696 -0.17821515 -0.028839409
0.38949141 -0.18742536 -0.032534104
0.38961881 -0.17717673 -0.027142875
0.37284881 -0.14538252 -0.014008872
0.39311263 -0.15634459 -0.01668461
0.38545781 -0.16142011 -0.01990838
0.38030887 -0.1398261 -0.010772713
0.3786903 -0.15240818 -0.016470864
0.39710063 -0.17409138 -0.024638064
0.39934897 -0.16458035 -0.019586131
0.40239647 -0.17138527 -0.02249945
0.40080386 -0.17646915 -0.025355004
0.40623203 -0.17374259 -0.02311068
0.061060421 0.29553643 -0.046658814
0.3540574 -0.095014453 0.0045955367
0.39915916 -0.15098225 -0.01343406
0.40985247 -0.15073758 -0.011714637
0.403218 -0.15543284 -0.014820784
0.41052997 -0.16404961 -0.017764017
0.41915557 -0.16240476 -0.015413061
0.41462517 -0.1549881 -0.012768395
0.4126834 -0.17041473 -0.020497993
0.099569991 0.28953528 -0.032341406
0.26064989 0.0023161024 0.024518564
0.27047038 0.0061394591 0.024177993
0.26965752 0.0082929414 0.02447867
0.27692318 0.0020540059 0.023894083
0.41287872 -0.14029074 -0.0066177472
0.42104456 -0.14969689 -0.0092263222
0.42369956 -0.15355915 -0.010526128
0.43349892 -0.15251642 -0.0083205551
0.096783817 0.3049379 -0.040873297
0.10460398 0.29615203 -0.034715749
0.11756059 0.28196108 -0.023780286
0.12253252 0.28257686 -0.022971749
0.28437081 0.0095055308 0.02507263
0.42446741 -0.13990109 -0.0044019669
0.4312591 -0.14859658 -0.0069878176
0.4341855 -0.13808012 -0.0019225031
0.43430179 -0.13813457 -0.0019249246
0.44159353 -0.16020319 -0.010285124
0.4530353 -0.12986201 0.0049146712
0.46114781 -0.13771321 0.0035222471
0.44764626 -0.13888532 0.00020838529
0.16297108 0.27438098 -0.011079587
0.46979877 -0.14127094 0.003974475
0.49013981 -0.14866048 0.0062337518
0.47835502 -0.14953507 0.0025730655
0.48162317 -0.14009561 0.007332325
0.48608354 -0.15826182 0.00066394359
0.49773374 -0.15794566 0.0043091103
0.17742002 0.28143516 -0.011234462
0.16241461 0.29216954 -0.018783271
0.18609132 0.26412332 -0.002352722
0.19906209 0.25195765 0.0043077655
0.49329701 -0.13921306 0.01094956
0.51176178 -0.15851597 0.0089006647
0.2049413 0.26333779 0.00051820278
0.21776319 0.24822485 0.0083622485
0.52665406 -0.14912808 0.017427817
0.52469844 -0.1586841 0.013023712
0.53424954 -0.15821406 0.016177386
0.2254791 0.25851011 0.0051704422
0.23272285 0.23681301 0.013763569
0.24786864 0.23180299 0.016736206
0.63103741 -0.14380985 0.0453711
0.62040782 -0.14424244 0.042481363
0.50377607 0.04658816 0.05150535
0.63929367 -0.12550029 0.051571928
0.6456573 -0.13398662 0.051095814
0.68011969 -0.15240587 0.053964995
0.67137283 -0.14904505 0.053244568
0.50422311 0.080763765 0.051220335
0.52661967 0.05565124 0.052951977
0.53703678 0.044233434 0.053184804
0.53356934 0.029047482 0.052250542
0.57090878 -0.020234458 0.053418037
0.58521724 -0.033709057 0.054071378
0.65495181 -0.10731155 0.058111887
0.65625489 -0.12086136 0.055961192
0.67468011 -0.1285376 0.058128349
0.6910221 -0.14824018 0.056734726
0.68912077 -0.15236464 0.055352226
0.70214945 -0.15554792 0.055418037
0.69928974 -0.1585651 0.054294378
0.69234502 -0.1575743 0.054306597
0.70928663 -0.16642223 0.05215928
0.51457077 0.091453917 0.051654592
0.53359109 0.071173362 0.053364336
0.60212606 -0.02289857 0.057136308
0.62150413 -0.039107777 0.059329439
0.632523 -0.060082987 0.059733894
0.68572825 -0.12209842 0.061077051
0.58993131 0.016496919 0.057297707
0.59268534 0.0053704455 0.05734726
0.60294449 0.015912328 0.0585832
0.64170516 -0.046774447 0.062221956
0.66149473 -0.072088793 0.063646868
0.70121586 -0.11898756 0.063707605
0.6230495 0.0015198439 0.060595013
0.63740289 -0.023839489 0.062425304
0.666592 -0.057239324 0.065625414
0.71216404 -0.089886136 0.067856357
0.65745234 -0.15050238 0.050013945
0.59818065 -0.0079057589 0.057275102
0.60175979 -0.0087443367 0.057815939
0.21242592 -0.21416499 -0.057987973
0.58899754 -0.0017578676 0.056676988
0.5870741 -0.00097681582 0.056404073
0.58348835 0.01133303 0.056594335
0.28117511 -0.14994863 -0.018852055
0.54306871 0.017519645 0.052714206
-0.067671955 -0.22755271 -0.080969445
0.12832741 -0.12217532 -0.00073419511
0.2880365 -0.057261288 0.013716668
0.40028197 0.15585843 0.037036251
-0.11931473 -0.24023011 -0.094247207
-0.10867753 -0.2125269 -0.072778232
-0.1087321 -0.21265565 -0.07287237
-0.086639673 -0.21169364 -0.071344018
-0.08740139 -0.20973235 -0.069957778
0.26089877 -0.03813602 0.018131465
0.28316632 -0.034096532 0.018299298
-0.13260308 -0.23706308 -0.093518816
-0.012145925 -0.13575819 -0.020908486
-0.17381199 -0.19482553 -0.06289798
-0.091310896 -0.090493634 0.012754587
0.18780646 0.2886982 -0.011684135
0.13790318 0.28704214 -0.022315986
-0.087901399 0.28928095 -0.10883754
-0.08872427 0.28203246 -0.10160169
-0.085202008 0.29442021 -0.11246283
0.0039904304 0.29736501 -0.069694929
0.10303548 0.28942192 -0.033732504
0.15911576 0.30606088 -0.023857139
-0.31034181 -0.17950022 -0.041519351
-0.30471787 -0.17096722 -0.032032918
-0.06129555 0.0051338393 0.02484291
-0.062965706 -0.0078019295 0.024097448
-0.23982707 -0.1337072 -0.0012050215
-0.31093079 0.17974925 -0.052634701
-0.322696 -0.091902934 0.0378052
-0.31626377 -0.092952318 0.036118865
-0.29628548 -0.099516965 0.028852578
-0.29719898 -0.090711094 0.034274735
-0.33986306 -0.094608687 0.03888103
-0.32104525 -0.048076048 0.055739511
-0.27417934 0.12938745 0.00089910254
-0.35418639 -0.06572336 0.056538545
-0.45573807 -0.12302411 0.030463219
-0.46270922 -0.11527747 0.038061596
-0.47225678 -0.10540109 0.046810016
-0.36293051 -0.017679296 0.069575951
-0.44315597 -0.010869779 0.086152852
-0.51467127 -0.049783256 0.084729902
-0.46589872 -0.011607848 0.090734348
-0.55109215 -0.078345254 0.083852917
-0.51472664 -0.043199196 0.087934606
-0.50657052 -0.051949162 0.084561795
-0.49620098 -0.060018122 0.08015012
-0.48896044 -0.068795756 0.074353099
-0.48767069 -0.053908106 0.082903206
-0.48798811 -0.077114277 0.069121398
-0.49572876 -0.090592459 0.060385197
-0.50167876 -0.10221238 0.052305534
-0.50507355 -0.1113755 0.045635939
-0.48023111 -0.088131137 0.061340056
-0.48638254 -0.099450074 0.052833792
-0.48512378 -0.10568328 0.047680553
-0.49751601 -0.12220533 0.036240738
-0.48860481 -0.11911636 0.03703988
-0.50010693 -0.13418911 0.027823314
-0.47128963 -0.096826248 0.054104343
-0.479718 -0.11829934 0.036384478
-0.48329741 -0.12745953 0.028717726
-0.49247959 -0.14235386 0.019365752
-0.45075005 -0.10020223 0.050527029
-0.46156502 -0.11423294 0.039303705
-0.46929657 -0.12588288 0.028798684
-0.44457799 -0.10875574 0.043054905
-0.45050904 -0.13037425 0.023629282
-0.45958149 -0.12634972 0.027664606
-0.46031895 -0.12388147 0.03014564
-0.45737973 -0.11843607 0.035278425
-0.46101701 -0.13059261 0.023628041
-0.4578861 -0.12681997 0.02715821
-0.46597707 -0.13790768 0.017298264
-0.46571988 -0.13910629 0.0159615
-0.46642536 -0.13897458 0.016369307
-0.39694434 -0.028370265 0.075221777
-0.44367266 -0.1197792 0.033453472
-0.43524364 -0.12816714 0.025121808
-0.4491733 -0.13538429 0.018479716
-0.44982404 -0.13637069 0.017569475
-0.44181004 -0.13870192 0.015056526
-0.45213991 -0.14439079 0.0095801428
-0.4209756 -0.1260888 0.026280664
-0.42753351 -0.13656317 0.016374452
-0.42655975 -0.13598095 0.016934585
-0.43391225 -0.13289155 0.020500854
-0.43795937 -0.14207487 0.011217831
-0.44310215 -0.15199089 0.0012121163
-0.44842067 -0.1546376 -0.0003206376
-0.41287628 -0.13388331 0.017979706
-0.41789043 -0.14327125 0.0088589005
-0.42719319 -0.14313571 0.0097197331
-0.42537469 -0.16134663 -0.0092908032
-0.42945531 -0.15096505 0.0014483109
-0.40471199 -0.14160326 0.0096263066
-0.40932876 -0.14745891 0.0034985598
-0.4171598 -0.14946055 0.002330862
-0.41015694 -0.15912551 -0.0084893834
-0.4186444 -0.15197691 -0.00019471906
-0.41869441 -0.15694851 -0.0056079421
-0.4190065 -0.15910801 -0.0082625262
-0.38390392 -0.14734398 0.0016091708
-0.3919985 -0.13973284 0.010173751
-0.39811718 -0.16746144 -0.018719167
-0.36108109 -0.14519136 0.0010228492
-0.37034988 -0.1633805 -0.017433017
-0.37627241 -0.16115481 -0.013926532
-0.33436304 -0.14241832 0.0008879099
-0.31397042 -0.16351953 -0.023462102
-0.30456898 -0.15529579 -0.015289273
-0.28760713 -0.17288718 -0.035704013
-0.3021965 -0.20008776 -0.063472807
-0.32683417 0.19689488 -0.1084167
-0.33674589 0.19194099 -0.092821702
-0.26789826 -0.15439779 -0.017214656
-0.28042307 -0.18065459 -0.044614047
-0.2797612 -0.18053834 -0.044534728
-0.29257792 -0.18201838 -0.045641769
-0.29731694 -0.19115987 -0.055138033
-0.30282599 -0.20746644 -0.070447505
-0.32330954 0.19596928 -0.099458106
-0.24583788 -0.14519291 -0.010251457
-0.2589128 -0.16991119 -0.034028094
-0.26757979 -0.1788068 -0.043164067
-0.27495062 -0.17101124 -0.033651955
-0.2031185 0.03871987 0.027858134
-0.29830009 0.20598516 -0.12756804
-0.31201062 0.2014005 -0.11318277
-0.30859271 0.19834927 -0.095404014
-0.30460447 0.18470457 -0.058581628
-0.31352898 0.18998615 -0.07353422
-0.23126933 -0.14067903 -0.007649336
-0.25237262 -0.16909122 -0.033478659
-0.24854022 -0.18499701 -0.051159244
-0.25710019 -0.1783658 -0.043131575
-0.25276655 -0.19314986 -0.059813295
-0.29137573 0.20810136 -0.1347553
-0.28891277 0.20864648 -0.12355179
-0.29914919 0.20439734 -0.11220039
-0.29325676 0.20057249 -0.092462659
-0.23564102 -0.18308368 -0.049312796
-0.23679243 -0.18381178 -0.05010704
-0.24749114 -0.18437998 -0.050364435
-0.24684724 -0.2064018 -0.073202215
-0.25610703 -0.20593354 -0.072111994
-0.2771458 0.21152398 -0.13211334
-0.28827721 0.20714971 -0.11286819
-0.28743079 0.15441856 -0.018320277
-0.26100403 0.21531451 -0.12598193
-0.27738109 0.21120524 -0.12429819
-0.25327834 0.21960026 -0.1386981
-0.25163701 0.13700429 -0.0036476217
-0.20594202 0.22823212 -0.10645226
-0.13847743 0.25998324 -0.11176881
-0.049021065 0.28198534 -0.083256073
-0.072924107 0.28456348 -0.096793264
-0.037537407 0.2941412 -0.086102977
-0.05081059 0.30058837 -0.095192201
-0.055329308 0.29449895 -0.094715469
-0.055435959 0.28547642 -0.088543162
-0.0076410733 0.29413733 -0.072982162
-0.023171674 0.29284653 -0.0791362
-0.034644291 0.29270801 -0.084137723
-0.027066469 0.29187554 -0.079849511
-0.038841877 0.29035783 -0.08432205
-0.013434593 0.2928578 -0.074633203
-0.011959974 0.29347569 -0.074334905
0.014759688 -0.20357211 -0.060493011
0.020361859 0.30468512 -0.066733792
0.013121836 0.29809031 -0.066930793
0.0051050745 0.29620686 -0.06915509
0.01891496 0.29587808 -0.063272856
-0.0010396913 0.29360393 -0.069656491
0.042480268 -0.18635228 -0.047958549
0.0262197 -0.20165834 -0.05812905
0.041824259 0.30417949 -0.058910675
0.024689458 0.30593768 -0.065996446
0.03067385 0.29999435 -0.061001658
0.024704002 0.29642424 -0.061355643
0.014987804 0.3008875 -0.067702606
0.018868241 0.29382139 -0.06161356
0.020707019 0.28606477 -0.055751972
0.0047366805 0.29321337 -0.0667824
0.088751942 0.30803102 -0.044003211
0.063089982 0.30248415 -0.050876625
0.053062964 0.30241877 -0.054092102
0.048853043 0.29812416 -0.053592004
0.03974602 0.30420485 -0.059719548
0.04283477 0.29512474 -0.054283768
0.03147443 0.2886278 -0.054088481
0.11182369 0.30851698 -0.037535369
0.099433422 0.30842468 -0.04100626
0.086983472 0.3032997 -0.043726049
0.095813625 0.29780281 -0.039236918
0.084333614 0.29964328 -0.043191984
0.072321676 0.30383009 -0.048189759
0.081198595 0.29741305 -0.043233119
0.071368746 0.29720718 -0.046126895
0.060125787 0.29896802 -0.05023206
0.068503328 0.29416096 -0.045489803
0.056949768 0.29647568 -0.049843691
0.057004537 0.29647675 -0.04982613
0.041099966 0.30002737 -0.057347804
0.091042593 -0.20740202 -0.056035846
0.1276059 0.29997301 -0.030471064
0.10747947 0.29679042 -0.035272516
0.11677869 0.29399699 -0.031785563
0.092677251 0.29501787 -0.039204016
0.090102434 0.29238915 -0.038510397
0.078409985 0.29489058 -0.042854585
0.077734843 0.28903556 -0.040119894
0.077125028 0.28830385 -0.039900728
0.065362573 0.29104471 -0.044248126
0.06565772 0.2903955 -0.043795556
0.11623241 -0.19641808 -0.047822103
0.09966664 -0.21507876 -0.060798924
0.12061019 0.3000755 -0.032864667
0.099832848 0.28602827 -0.032878153
0.11184179 0.28470057 -0.028969131
0.11046889 0.27825427 -0.026108339
0.087528035 0.28934762 -0.03743428
0.087040059 0.28298405 -0.033976421
0.13362804 0.29799265 -0.028319709
0.13242501 0.29142436 -0.02592206
0.080903187 0.29820102 -0.043175325
0.15404451 0.29874587 -0.023353785
0.17245758 0.30706787 -0.020943485
0.16136344 0.2771436 -0.012622878
0.24064255 -0.012619404 0.023739275
0.24005887 -0.033662282 0.01970214
0.2382842 -0.059109192 0.014692472
0.19957186 0.29274061 -0.01044786
0.19205332 0.3001878 -0.014056563
0.24870053 -0.021337889 0.021514192
0.20825116 0.29360917 -0.008441709
0.21053909 0.28986278 -0.0071239322
0.20800318 0.29372942 -0.0085295364
0.19813071 -0.14404225 -0.016258437
0.27842554 0.25955176 0.01120422
0.27750182 0.26796448 0.0092990696
0.2710945 0.26787472 0.0083965287
0.27827889 0.25938186 0.011224393
0.26668721 0.25966758 0.009496931
0.26395917 0.2600829 0.0089839026
0.28984308 0.25932175 0.0124451
0.28963485 0.25915116 0.012433145
0.28705105 0.24284834 0.015392911
0.32015035 0.21702808 0.022906058
0.46539134 -0.036167655 0.036940314
0.51190317 -0.097935572 0.030010223
0.52067631 -0.10229228 0.030837722
0.57751536 -0.086572915 0.046028648
0.56730801 -0.088164002 0.043768078
-0.036393698 0.30035666 -0.088380195
-0.048319742 0.30122271 -0.094155736
-0.046240129 0.30561021 -0.094800487
-0.056960795 0.3049812 -0.099310674
-0.069303878 0.30963498 -0.10696132
-0.022570711 0.3048037 -0.084382266
0.075118914 0.30407977 -0.047273867
0.066651955 0.31517926 -0.052558042
0.045891605 0.3065398 -0.057757147
0.033720545 0.30443507 -0.061640322
-0.015405066 0.30205563 -0.080290064
-0.02621226 0.29537886 -0.081762485
-0.019795679 0.29581922 -0.079266302
-0.044052888 0.29257146 -0.088241354
-0.076191202 0.29889321 -0.10627115
-0.062344324 0.28553224 -0.092177279
-0.085955106 0.28048751 -0.10052408
0.15437447 0.3137385 -0.027433969
0.13877404 0.29689449 -0.026361555
0.16045138 0.31495497 -0.026144788
0.15158065 0.3054195 -0.025898337
-0.083693057 0.27699149 -0.096035108
-0.18851265 0.25553533 -0.14195499
-0.18552782 0.2456685 -0.12858063
0.051397916 0.29990155 -0.053461492
-0.088856891 0.27222326 -0.093865469
-0.30486301 0.2031171 -0.12133911
0.21246412 0.32003069 -0.011547402
0.20706595 0.31039453 -0.012201607
0.20981491 0.31094718 -0.011445574
0.20248581 0.30163184 -0.011715069
0.19559133 0.30947897 -0.015399039
0.20248581 0.30163184 -0.011715069
0.22427964 0.30872521 -0.0074815527
0.2309283 0.30792198 -0.0056515634
0.21332708 0.30989778 -0.010135449
0.24163131 0.29322213 -0.001265049
0.25994352 0.28620833 0.0032712743
0.25280029 0.276398 0.0036226138
0.25096142 0.2848016 0.0018963367
0.2470067 0.29507047 -0.00037173927
0.2403163 0.28495157 -0.0001276508
0.24301492 0.27783659 0.0018583462
0.24104936 0.27916318 0.0011828691
0.13858622 0.27916053 -0.018376648
0.2910043 0.27741796 0.010194842
0.27170521 0.27623668 0.0067925826
0.27591455 0.277661 0.0074737594
0.26078355 0.2763553 0.0050217584
0.25997543 0.26805347 0.0065711625
0.25238234 0.2681419 0.0054142177
0.25963575 0.26810381 0.0065045357
0.25331077 0.26912495 0.0053593814
0.24862304 0.27074224 0.0042221621
0.28989273 0.26778892 0.011095334
0.29139054 0.26762456 0.011477008
0.26058888 0.25977552 0.0086097457
0.25958204 0.26024407 0.0083821863
0.25083077 0.25997555 0.0074075125
0.17588219 0.27099204 -0.0071856156
-0.51855642 -0.034741014 0.091770843
0.30107725 0.25095564 0.015343472
0.28031409 0.25147688 0.013143055
0.25176334 0.25168496 0.0099876411
-0.06643638 0.2274294 -0.035438374
-0.13078761 0.16247034 -0.0076934583
-0.22296733 0.059968952 0.027586505
-0.23762058 0.052265465 0.030606747
0.30883804 0.24222347 0.017300613
0.29921478 0.24254048 0.016521089
-0.22198859 0.044393271 0.029987678
0.31984252 0.24436864 0.018171817
0.29993045 0.23434901 0.018169012
0.30630863 0.23361489 0.018633377
0.29472205 0.23386875 0.017870571
-0.12247352 0.12777573 0.0044794865
0.37272948 0.23755355 0.02512994
0.37372008 0.24160935 0.025769699
0.36393109 0.23498866 0.024073359
0.31225458 0.22591078 0.020802747
0.32134175 0.22552088 0.021388326
0.30768809 0.2254148 0.020470843
0.30093277 0.22598992 0.019935273
0.14592683 0.13157064 0.02656934
0.13216206 0.1306854 0.025308056
0.11930002 0.12696968 0.025190478
0.10528837 0.12490041 0.023874916
-0.38194829 -0.032992709 0.071318045
-0.38976961 -0.029481698 0.073618039
0.3785409 0.23951668 0.026628621
0.37802419 0.23790373 0.026355445
0.30881512 0.21702108 0.022337168
0.17518482 0.13545942 0.029753672
0.14615904 0.12921724 0.027789775
0.099387415 0.11511775 0.025029819
0.39738601 0.2249523 0.02987612
0.17188275 0.12782153 0.030357007
0.16881688 0.13324618 0.029741177
0.1651213 0.13668287 0.028557008
0.1557546 0.1338052 0.028670557
0.13751301 0.13131014 0.02751616
0.41030711 0.21460059 0.03139532
0.40004057 0.21290186 0.029733293
0.40076405 0.22223616 0.029865004
0.387353 0.21114597 0.028312929
0.17556113 0.12372476 0.031239405
0.1805256 0.11244489 0.031585515
0.16369437 0.1264393 0.029537067
0.16238274 0.11707605 0.031002264
0.41825831 0.21140149 0.032683831
0.41553757 0.20462199 0.032584127
0.14613324 0.09339799 0.035030019
0.13502616 0.081421487 0.037191369
-0.36939684 -0.085979611 0.04905149
-0.43756926 -0.097750112 0.051575847
0.42080435 0.16144462 0.037669528
-0.30156523 -0.072778031 0.043752689
-0.36227429 -0.089705929 0.045457892
-0.36802781 -0.094922088 0.043239165
-0.44979873 -0.11366132 0.038478993
0.45458069 0.15338327 0.042189725
0.44556731 0.15278332 0.041256629
0.43408561 0.14352682 0.041311584
0.43327904 0.15190363 0.040079616
0.43697479 0.15349419 0.040338408
0.41071442 0.15044758 0.038484685
-0.26180339 -0.095891513 0.025940755
-0.28416911 -0.099903941 0.026855648
0.45127875 0.1440694 0.042639732
0.4392615 0.14298707 0.041697111
-0.29342625 -0.099402249 0.028556269
-0.40658587 -0.12421805 0.026644714
-0.39997116 -0.13207042 0.018639456
0.47273806 0.11800218 0.046202719
0.46206516 0.116891 0.04571709
0.46206516 0.116891 0.04571709
-0.38457876 -0.1308417 0.018291669
-0.36871734 -0.13745973 0.0098139197
-0.37324631 -0.14597753 0.001530299
-0.36970669 -0.17159261 -0.026391823
0.50912505 0.068890728 0.051851943
-0.25870308 -0.1618703 -0.025019787
0.3377032 -0.0070212409 0.025722209
-0.24179022 -0.16746528 -0.032575499
0.33153135 -0.021019913 0.022703534
0.30803528 -0.037906975 0.017959274
0.29637554 -0.041403372 0.016784284
0.32851109 -0.029286608 0.020873219
0.31796923 -0.036814444 0.018579617
-0.24412788 -0.17635532 -0.0414817
-0.20169021 -0.17890292 -0.049115553
-0.21273901 -0.17954995 -0.047583479
-0.22418196 -0.18129122 -0.048201278
-0.23740347 -0.18908092 -0.056869864
-0.24065042 -0.19130386 -0.058901276
-0.26402867 -0.19538955 -0.061589453
0.36314565 -0.036733277 0.022170929
-0.19354926 -0.185215 -0.055687219
-0.2096362 -0.19000226 -0.05996643
-0.22276142 -0.1957396 -0.064757004
-0.23481321 -0.20073758 -0.06865792
0.3708916 -0.040443972 0.022191046
0.36153585 -0.050054561 0.018631302
-0.22251149 -0.20502809 -0.072738603
0.35040829 -0.054261323 0.016643893
0.56146842 -0.050220642 0.048868217
0.37958217 -0.060133696 0.01801626
0.36122441 -0.065997414 0.014315851
0.36693889 -0.06507317 0.015145708
0.36145571 -0.059556995 0.016191363
0.57931358 -0.05906754 0.050487604
0.57337207 -0.052480277 0.050334606
0.56794238 -0.058887765 0.048626803
0.59144974 -0.065304562 0.051762838
0.31908375 -0.12216167 -0.0069418922
0.11641084 -0.1770082 -0.03619466
0.10145324 -0.17975096 -0.038338073
0.089460209 -0.18088762 -0.040110335
0.04136046 -0.19161829 -0.050941221
0.030137794 -0.19155939 -0.052087929
0.018915061 -0.19451058 -0.054879174
0.13622585 -0.18376011 -0.039236896
0.1390518 -0.17663056 -0.034849193
0.12395981 -0.1859889 -0.040962845
0.12903215 -0.17688264 -0.035098404
0.11269704 -0.18758233 -0.042296641
0.11071613 -0.1862572 -0.041728906
0.098745063 -0.18757457 -0.043361314
0.096173584 -0.18288894 -0.040193934
0.086057991 -0.18970366 -0.045422368
0.072887823 -0.1910767 -0.047567826
0.048835211 -0.19433914 -0.051523145
0.052247167 -0.19108555 -0.049436107
0.046492085 -0.18677422 -0.047221884
0.037615824 -0.19963042 -0.055831321
0.037252415 -0.20059535 -0.056483373
0.033700813 -0.18972793 -0.050492354
0.12149869 -0.19539955 -0.046974342
0.10744224 -0.19607663 -0.047990046
0.095129535 -0.19796951 -0.049624819
0.081795231 -0.19972549 -0.05180975
0.070335165 -0.20060836 -0.053252302
0.059271254 -0.20179619 -0.054912228
0.022327602 -0.21111874 -0.064306058
0.022092912 -0.20996557 -0.063604206
0.13370222 -0.19350673 -0.045305833
0.11484759 -0.20549881 -0.053941444
0.1035472 -0.20858951 -0.056611069
0.091576651 -0.2074544 -0.056093328
0.078964233 -0.20905833 -0.057956945
0.052814234 -0.21242899 -0.062028345
0.039896172 -0.21727215 -0.066504687
0.029038362 -0.2189022 -0.068436675
0.018394848 -0.21978882 -0.070141427
0.12067471 -0.21070422 -0.057342358
0.11040303 -0.21295479 -0.059525229
0.099352486 -0.21317154 -0.060095493
0.087664008 -0.21684247 -0.062525369
0.082781628 -0.21583225 -0.061931483
0.058171749 -0.22262214 -0.068545029
0.037082106 -0.22545286 -0.072244145
0.036496896 -0.22222503 -0.069994085
0.026765112 -0.22640437 -0.073690258
0.01441136 -0.22845614 -0.076425605
0.13175009 -0.21639013 -0.061492153
0.12399334 -0.22195843 -0.066146389
0.11664483 -0.22013478 -0.064501338
0.10009488 -0.21663323 -0.062458087
-0.45428777 -0.06351497 0.074719571
-0.41790926 -0.010295622 0.080788255
-0.40351579 -0.05011392 0.070873551
-0.40421253 -0.069032609 0.063489765
-0.40321141 -0.079282269 0.05823034
-0.40835065 -0.011529036 0.07901825
-0.4059338 -0.038037356 0.074615806
-0.39373615 -0.049730498 0.069536716
-0.38495356 -0.049015243 0.068128265
-0.37272516 -0.032835696 0.069484152
-0.38071588 -0.057811476 0.064254083
-0.37163672 -0.06020746 0.061939076
-0.35638556 -0.052391607 0.061636616
-0.3526172 -0.078414299 0.050466586
-0.3591128 -0.080266729 0.050555758
-0.34957346 -0.071592391 0.053039704
-0.34125215 -0.070987552 0.051982746
-0.34394532 -0.094486803 0.039529674
-0.31049338 -0.064813145 0.048286282
-0.29581735 0.037217382 0.045462038
-0.30384284 0.025655154 0.050489992
-0.2866855 0.017522007 0.048983447
-0.28304368 -0.16405439 -0.026397202
-0.26844838 0.036953375 0.03915444
-0.25964987 0.070138901 0.030371547
-0.26208934 0.045113601 0.036056675
-0.26325682 0.022694685 0.040161192
-0.1802648 0.26159266 -0.14282435
-0.19226927 0.23117916 -0.099010713
-0.24158043 0.071568541 0.027372681
-0.25014055 0.058736239 0.031720866
-0.25047931 0.066747367 0.029788237
-0.24247198 0.038821697 0.033787906
-0.16898228 0.27426422 -0.14580472
-0.16763499 0.27210996 -0.14369759
-0.23624492 0.062200088 0.028689284
-0.23036297 0.070375986 0.026257329
-0.22830012 0.069242552 0.026175991
-0.23042539 0.053550813 0.029431654
-0.22903571 0.041878205 0.031154111
-0.23507735 0.040996727 0.032199956
-0.23113354 0.028688896 0.033301104
-0.16102637 0.28397909 -0.14639911
-0.15829085 0.27509341 -0.14049603
-0.16328132 0.26315749 -0.13287935
-0.15933764 0.25766715 -0.1237696
-0.15531901 0.27053005 -0.13502246
-0.16514775 0.26441184 -0.13532899
-0.16669175 0.25466096 -0.12565914
-0.22436148 0.06979394 0.026249446
-0.22472581 0.073496751 0.025016788
-0.21669357 0.082438499 0.021579996
-0.21992166 0.06560801 0.026165955
-0.22184211 0.050886355 0.029189639
-0.1508767 0.28949547 -0.14443251
-0.14770494 0.2799744 -0.13815725
-0.15223306 0.25650892 -0.11735062
-0.15041068 0.2544474 -0.1125391
-0.15869962 0.25072068 -0.11311684
-0.16145039 0.2418749 -0.097623825
-0.21116619 0.060140911 0.025726695
-0.20813818 0.068039 0.024174538
-0.2025803 0.055373624 0.025375739
-0.20014201 0.057603784 0.024616392
-0.19796494 0.054089822 0.025049346
-0.12870499 0.29714116 -0.13491789
-0.13983092 0.28973299 -0.13874079
-0.13678779 0.28071022 -0.13158306
-0.14268582 0.26246014 -0.11767337
-0.14441103 0.26363704 -0.1201435
-0.14327531 0.2553404 -0.10871781
-0.1484454 0.25317034 -0.10927043
-0.15102455 0.24704786 -0.10027606
-0.19927064 0.06640701 0.02303927
-0.19712198 0.060042985 0.024098359
-0.17495878 0.085523121 0.017227145
-0.16881832 0.072527558 0.019923396
-0.12294208 0.29477638 -0.1292827
-0.12045974 0.2772491 -0.1180411
-0.12557454 0.2668952 -0.11128521
-0.12874311 0.26465476 -0.11090127
-0.13181412 0.27251509 -0.12122887
-0.12469631 0.26273748 -0.10574833
-0.13415056 0.25826466 -0.1064336
-0.13336819 0.25425386 -0.10013535
-0.12910312 0.25733501 -0.10163205
-0.13380535 0.25293878 -0.097828694
-0.12913616 0.25299898 -0.094191693
-0.10826579 0.29331815 -0.1203291
-0.1131836 0.28049058 -0.11600201
-0.11623888 0.29023054 -0.12279698
-0.11166108 0.28116554 -0.11573041
-0.12014756 0.27312258 -0.11414997
-0.11808187 0.26906365 -0.10858765
-0.11728166 0.2651172 -0.10369736
-0.12012563 0.2632314 -0.10315857
-0.12432737 0.25283027 -0.091526501
-0.093148552 0.29046938 -0.11064549
-0.11088576 0.26089683 -0.094153494
-0.10576291 0.25937694 -0.087844409
-0.11161834 -0.20368952 -0.066692024
-0.099424407 -0.20706762 -0.068904102
-0.099412858 -0.2062673 -0.068250343
-0.096450187 -0.21614197 -0.074610755
-0.096806422 -0.21516664 -0.073935106
-0.084195599 0.033904664 0.025724132
-0.086215205 0.0075908415 0.026224948
-0.085808203 -0.039715722 0.020754524
-0.091065601 -0.13830101 -0.020264577
-0.084049106 -0.21767475 -0.07502874
-0.084500417 -0.21787548 -0.075197875
-0.059916958 0.10058479 0.016629072
-0.064545028 0.10338618 0.015433576
-0.053257551 0.11515588 0.013674527
-0.069648251 0.063290879 0.023178
-0.048274577 0.11155934 0.014649369
-0.045877323 0.089132644 0.020133451
-0.04591579 0.10385192 0.017167591
-0.04980284 0.074909233 0.022423793
-0.056733035 0.069316305 0.02298509
-0.055754341 0.047087379 0.025394563
-0.05896705 0.024258338 0.025308535
-0.06103985 -0.039003797 0.019521838
-0.050941654 -0.22107966 -0.075205147
-0.037663855 0.079288624 0.022393912
-0.046375372 -0.14777178 -0.029853428
-0.038103763 -0.2078117 -0.06551145
-0.035920892 -0.14365107 -0.028203335
-0.034289971 -0.14449225 -0.028578091
-0.028138239 -0.2034867 -0.06258323
-0.031623337 -0.21639468 -0.070995197
-0.029416932 -0.13462315 -0.020775855
0.0018890258 0.11890374 0.021473542
-0.012056064 -0.22393386 -0.075088575
0.016576312 0.1313988 0.020553518
0.013974376 -0.19960018 -0.05777581
0.015365236 -0.22738631 -0.075035341
0.033147909 -0.20936194 -0.062231645
0.037376214 -0.23294084 -0.07776662
0.087240867 0.29313275 -0.038394585
0.067027077 0.11614368 0.025384484
0.076049164 0.10910664 0.027014814
0.096065529 0.29296693 -0.035528816
0.082204327 0.11564253 0.026918435
0.082093835 0.11051875 0.030357517
0.098615766 0.1176395 0.02893596
0.1330227 0.27498245 -0.017232053
0.10423042 -0.22194159 -0.066363484
0.16950041 0.30775383 -0.02203007
0.17171419 0.293262 -0.017134294
0.18938108 0.2904681 -0.012033284
0.17563844 0.11735365 0.031389598
0.1706029 0.1142338 0.031916283
0.18349057 0.12060343 0.031673502
0.23300718 0.30728239 -0.0053014234
0.21468075 -0.16712037 -0.028983079
0.2476688 0.24411161 0.012044162
0.26548257 0.23641571 0.015785754
0.26259527 0.23632628 0.016091369
0.25268325 -0.053887017 0.014706314
0.24467652 -0.15543656 -0.022306003
0.26967776 0.22423071 0.019156329
0.29470226 0.26247951 0.012564957
0.28983703 0.25925189 0.012571122
0.28280222 0.22111082 0.020148948
0.28704044 0.21037525 0.022784624
0.30551583 0.26058504 0.014727704
0.29643834 0.21377584 0.022669487
0.31295583 0.25422162 0.016412683
0.31164968 0.25452441 0.016122624
0.31560713 0.23289001 0.019733764
0.29706985 0.010735933 0.025347862
0.32534644 0.23992854 0.019471876
0.33106184 0.23545811 0.020674828
0.30956227 -0.13273847 -0.011342093
0.30877447 -0.13742849 -0.013316296
0.34439641 0.23435605 0.021801911
0.31808159 -0.14507109 -0.016305637
0.33932993 -0.13030729 -0.0094364397
0.37438104 0.24499512 0.026042305
0.37032324 0.11822136 0.039254799
0.38601992 0.22060595 0.027174577
0.36858752 0.15870358 0.034927458
0.3567788 -0.14096746 -0.013329264
0.36592135 -0.13732892 -0.011038575
0.39464909 0.22158949 0.028670087
0.38400891 0.15925601 0.035483267
0.38382733 0.15075934 0.03654933
0.38543397 0.14590292 0.037268918
0.39979449 0.14078158 0.03892912
0.40245122 0.14149719 0.039078306
0.38463551 -0.13400695 -0.0079405345
0.39838532 -0.062977128 0.019770958
0.39897904 -0.11837269 0.0001206249
0.43025672 0.20235139 0.034956411
0.43709716 0.19247405 0.036465783
0.4323999 0.15422574 0.039698139
0.44106483 0.12899572 0.043311812
0.4355385 0.13254431 0.042502224
0.45049289 0.19065869 0.038780384
0.4547931 0.18053761 0.039939132
0.453136 0.1327029 0.043854795
0.45432562 0.12843062 0.044401363
0.45478421 0.18794462 0.03934516
0.4617022 0.14475761 0.043626092
0.46521068 0.12835521 0.044843704
0.45560434 0.11875349 0.045244865
0.47322124 0.14588636 0.044289559
0.46840146 0.1361565 0.044642534
0.47874931 0.1099955 0.047411248
0.4722873 -0.12281581 0.011726767
0.51482689 -0.069722027 0.037666839
0.52695876 -0.071838781 0.039442763
0.53416985 -0.082680479 0.038445842
0.55210149 -0.098959126 0.038483988
-0.53329474 -0.02456478 0.095980443
-0.50253659 -0.040002368 0.089492023
-0.40207279 -0.058783501 0.067582466
-0.38429236 -0.040719863 0.070339449
-0.24073842 0.1475313 -0.01135014
-0.37346858 -0.022807017 0.071092345
-0.24316746 0.15961261 -0.021043051
-0.25333625 0.20295307 -0.074442938
-0.25333625 0.20295307 -0.074442938
-0.30192956 -0.079367444 0.040837716
-0.29208368 -0.15632564 -0.017598432
-0.2911911 -0.20599057 -0.069843233
-0.29346749 -0.11522229 0.017951801
-0.26937976 0.070416704 0.03103821
-0.26632613 0.058628403 0.034340795
-0.28874823 -0.10695982 0.022879675
-0.14940149 0.25841409 -0.11762659
-0.18871312 -0.17855065 -0.047204446
-0.030398667 0.047139168 0.026531002
-0.0097911675 0.042769738 0.029082876
0.07706356 0.11262575 0.023836531
0.067167684 0.12198571 0.020612152
0.0909537 0.12270382 0.022971777
0.091448665 0.10475314 0.031985115
0.096030042 0.11034002 0.03061646
0.097751766 0.11279605 0.030936468
0.078133255 -0.22614899 -0.06940677
0.28135833 0.24325189 0.014944695
0.32818842 -0.0016079731 0.025845427
0.31330863 -0.12372085 -0.0077588521
0.36932501 0.21891627 0.025389276
0.34039319 -0.021701328 0.023351392
0.37882209 0.22887571 0.026170213
0.42469287 0.15206689 0.039245907
0.43107209 0.1364052 0.041840926
0.43816429 -0.0042395629 0.039894819
0.43975025 -0.0085667484 0.039335005
0.43378124 -0.017860875 0.036514141
0.5119015 -0.090079702 0.032102007
0.53194088 -0.065826811 0.041569978
0.53931218 -0.077383392 0.040600177
0.54421973 -0.080961689 0.040793236
0.54826951 -0.069357008 0.043737207
0.55681163 -0.059812851 0.046721403
0.55493098 -0.090044305 0.041032121
0.55493098 -0.090044305 0.041032121
0.58589107 -0.067700081 0.050501764
0.58531326 -0.066666365 0.050532851
0.59742916 -0.073432684 0.05182289
-0.43674362 0.028427802 0.079427555
-0.42225385 0.028719433 0.076137766
-0.42769617 0.049497284 0.068337157
-0.418513 0.039840616 0.07142365
-0.41298887 0.030637302 0.074039951
-0.24738045 -0.12082417 0.0078903586
-0.15248021 0.25906006 -0.12058451
0.056128822 -0.18166699 -0.044058532
0.061455641 -0.17000532 -0.037610769
0.077644154 -0.18094984 -0.041702121
0.054390255 0.29613498 -0.05018153
0.054483503 0.29624736 -0.05021584
0.45702076 -0.04454324 0.033307616
0.49936453 -0.094397761 0.02806874
0.53944796 -0.08744058 0.038441788
0.5310638 -0.061493151 0.042227611
0.53378999 -0.046425611 0.045207329
0.55286962 -0.05972524 0.046078656
0.55030411 -0.05138579 0.047039267
0.55651271 -0.048379116 0.048327703
0.56295782 -0.066731155 0.046675753
0.58127654 -0.076776758 0.048330802
-0.5280028 0.0024906024 0.10043657
-0.45373797 -0.01039432 0.088178314
-0.14519769 -0.22682591 -0.086538292
-0.14529876 -0.21228181 -0.075247131
-0.14783038 -0.21752369 -0.079612717
-0.15439402 -0.23359743 -0.093071692
-0.15291345 -0.24256463 -0.10007678
-0.14491804 -0.21445645 -0.07697545
-0.13469844 -0.20605913 -0.069679104
-0.1318168 -0.21530804 -0.07657183
-0.12689731 -0.21703859 -0.077513263
-0.12120844 -0.21004 -0.072048761
-0.10907978 -0.24612717 -0.097612552
-0.10585785 -0.25438562 -0.10414092
-0.087155551 -0.20960021 -0.069679186
-0.0833496 -0.24788088 -0.096373618
-0.11157741 -0.071587764 0.017951356
-0.07513275 -0.21176241 -0.070704371
-0.074646294 -0.21179073 -0.070674449
-0.071825884 -0.22066437 -0.076348402
-0.071406677 -0.220366 -0.076122135
-0.062358893 -0.22349656 -0.07759437
-0.14507842 0.088610351 0.015879674
-0.10874385 -0.056724057 0.019913616
-0.049682956 -0.21038191 -0.068389125
-0.15685752 0.24076632 -0.090468042
-0.087552197 -0.07802631 0.015407817
-0.031675965 -0.23106463 -0.081030704
-0.094753854 0.022531254 0.027069554
-0.022358343 -0.2113138 -0.067120753
-0.12448552 0.25256774 -0.09007065
-0.077144735 -0.0073877377 0.024298131
0.001267679 -0.21789557 -0.069689564
-0.050079949 -0.021733064 0.022086626
-0.057094205 -0.025468508 0.021300791
-0.050717853 0.088639043 0.020137306
-0.076197386 0.28037092 -0.09270592
-0.025552308 0.087719724 0.022900522
-0.054946527 0.28634498 -0.087064095
-0.06426888 0.28197834 -0.087240852
-0.044691764 0.29301912 -0.088590585
0.0033418015 0.28796116 -0.061451241
-0.0011609383 0.29243702 -0.067126498
0.10561425 -0.058707103 0.019040469
0.20004402 -0.16339812 -0.027258027
0.2285662 -0.16908629 -0.02984485
0.23710155 -0.16730496 -0.028608005
0.13445166 0.27575016 -0.017287999
0.25133502 -0.18131685 -0.035940029
0.26064861 -0.19220395 -0.041556276
0.26461488 -0.20041102 -0.045938306
0.19142297 0.30271935 -0.015384972
0.21185598 0.28167552 -0.0046727732
0.33175343 -0.16882443 -0.026960403
0.34459952 -0.18509135 -0.034376144
0.36801291 -0.14991486 -0.016481597
0.26809546 0.21630108 0.021405093
0.30713475 0.16498992 0.032432579
0.36866295 -0.074356645 0.012530126
0.37597084 -0.092304192 0.0071162172
0.32860935 0.16349013 0.033208609
0.42600897 -0.17052832 -0.018275298
0.33846113 0.14811733 0.03532055
0.43263409 -0.12850687 0.0016195662
0.43365866 -0.12834162 0.0018562227
0.35435021 0.15315738 0.035078909
0.42047292 -0.05776982 0.024211455
0.44594294 -0.15176526 -0.005670011
0.3675445 0.17233431 0.032775588
0.45640332 -0.15083617 -0.0032077283
0.46809474 -0.16877495 -0.0091209337
0.46969149 -0.11464541 0.014311466
0.48221657 -0.096713915 0.023419853
0.48748711 -0.12342924 0.015403651
0.42636588 0.11181465 0.043862589
0.43896121 0.097082779 0.045864891
0.50724244 -0.12016051 0.021912795
0.49137068 -0.11407582 0.019874416
0.49823779 -0.12235887 0.018606789
0.50784999 -0.13405105 0.017208613
0.46116939 0.069659933 0.048139878
0.49279299 -0.03179175 0.042166401
0.51448381 -0.11228327 0.026473574
0.52300376 -0.13154438 0.022428662
0.51878375 -0.12182881 0.024443746
0.53604704 -0.14738859 0.020524286
0.47680703 0.065073766 0.049405996
0.48176327 0.050414473 0.049657486
0.48878568 0.0355727 0.049869161
0.53730977 -0.11140157 0.032119758
0.54205376 -0.12686652 0.028832607
0.53073561 -0.12451883 0.026792601
0.5381065 -0.11709794 0.030747999
0.52623528 -0.11440945 0.028769732
0.48582932 0.09302783 0.049344115
0.49804923 0.081065476 0.050534621
0.48827472 0.070026301 0.050262995
0.50803858 0.019475427 0.050304137
0.54586983 -0.11009017 0.034378882
0.55920154 -0.1393604 0.029264063
0.55430114 -0.12920125 0.031119093
0.56919914 -0.15056771 0.028198503
0.52094162 0.041435387 0.052439436
0.52783841 0.010298334 0.051028114
0.57455176 -0.12505269 0.037115693
0.5664742 -0.13152167 0.0334979
0.56224364 -0.12106296 0.035349187
0.57121229 -0.14145222 0.031635463
0.54407656 0.016714323 0.052713685
0.54967576 0.0031755343 0.052891359
0.57910609 -0.10878175 0.041968577
0.58242875 -0.11822565 0.040522359
0.59097564 -0.13215828 0.038879864
0.55820346 0.0014974698 0.053475909
0.56960374 -0.01859659 0.053383648
0.59043223 -0.1121276 0.043652374
0.59342563 -0.10972333 0.044815466
0.60402238 -0.12304616 0.044138268
0.58787394 -0.12228467 0.040719576
0.59069884 -0.12092994 0.041685537
0.60827726 -0.13953897 0.040876187
0.59946358 -0.14098161 0.038441919
0.6008563 -0.14889748 0.036449708
0.59596527 -0.13986826 0.037908345
0.60569626 -0.14920972 0.037533149
0.61068797 -0.17293066 0.031788215
0.57777059 0.024422336 0.056492999
0.61095667 -0.12761702 0.04453861
0.61451811 -0.14778277 0.040044732
0.62852001 -0.14844859 0.043572329
0.62722719 -0.16611643 0.038434289
0.64222378 -0.16041823 0.04402525
0.64390987 -0.1591478 0.044745073
0.66120452 -0.14751717 0.051556408
0.65726608 -0.15683636 0.048397154
0.64626932 -0.036117092 0.063282624
0.66788918 -0.11981723 0.058409661
0.67122257 -0.14325637 0.054496154
0.66493767 -0.14873642 0.05199711
0.6559571 -0.043266051 0.064557374
0.68614697 -0.1189247 0.061817519
0.6861195 -0.14230126 0.057400808
0.6813044 -0.15136442 0.054393053
0.68254775 -0.055524759 0.067990161
0.69600451 -0.12881845 0.061446719
0.71119684 -0.15056139 0.057465203
0.70079386 -0.15214998 0.056623831
0.69969547 -0.15103149 0.056721397
0.70048773 -0.06769412 0.068979442
0.70695102 -0.079691753 0.068387322
0.71393561 -0.12776645 0.063281499
-0.10674914 -0.037626766 0.022754958
-0.099744588 0.0068331175 0.027230935
-0.10247783 0.050623052 0.024564773
-0.081997998 -0.026579045 0.022792002
-0.06136683 -0.047117379 0.018635981
-0.0099629946 -0.24190573 -0.087583385
0.0046182163 -0.24031138 -0.08530312
-0.06324134 0.28139102 -0.086978957
-0.040282194 0.28707319 -0.078656055
-0.050246187 0.28760949 -0.084574394
0.11152561 0.11610802 0.027915448
0.37608051 -0.066900693 0.015533164
0.4144085 -0.12661289 -0.00071194395
0.43262082 -0.058876242 0.025393136
0.44250453 -0.037978448 0.032967769
0.43850377 -0.027947426 0.034934066
0.44083163 -0.051233817 0.028802093
0.44589913 -0.063966244 0.026103362
0.4475289 -0.0590351 0.027767196
0.44124708 -0.0090884306 0.039465353
0.45113906 -0.0076254271 0.041447498
0.44906449 -0.028617479 0.03639596
0.46515894 -0.035601627 0.03696689
0.46538335 -0.052511264 0.032746635
0.46548378 -0.012991581 0.042249087
0.47214282 -0.02594915 0.040324796
0.4752439 -0.05177981 0.034916684
0.50559837 -0.11248325 0.02396654
0.51502031 -0.10812917 0.027792353
0.50843185 -0.13892743 0.015549876
0.51221949 -0.033894043 0.044348914
0.52042133 -0.085151605 0.035181232
0.55110008 -0.14609966 0.024888769
0.5464493 -0.14427656 0.024332412
0.54561561 -0.13561846 0.026989102
0.53166258 -0.0023577213 0.050319776
0.54574823 -0.0063845441 0.051739059
-0.21424995 -0.039695401 0.031216234
0.048840567 0.10261314 0.030116681
0.036430866 0.11405284 0.027954439
0.10414419 0.2774654 -0.024501145
0.15996894 -0.20667095 -0.052659065
0.17565168 0.10590411 0.032017134
0.2477257 -0.20968807 -0.052708071
0.2477257 -0.20968807 -0.052708071
0.26003948 -0.05693762 0.014895195
0.32413733 -0.13888666 -0.01340371
0.39192688 -0.076112762 0.014717016
0.40288326 -0.072810218 0.017092735
0.53473461 0.0076184236 0.051259339
0.54914159 -0.15635946 0.020743057
0.55885035 -0.13930418 0.029199131
0.55383188 -0.13567421 0.028993428
0.5865922 -0.10748458 0.043808091
0.57742167 -0.097861528 0.04392489
0.60206759 -0.041459657 0.055999309
0.63238305 -0.010218531 0.061869416
-0.48488021 -0.005888164 0.095733285
-0.46142867 -0.086800635 0.061714917
-0.47575444 0.030668415 0.087058417
-0.47254822 0.020209789 0.089333765
-0.43004251 -0.11816839 0.034051664
-0.47581312 0.0066233575 0.091837406
-0.45237851 0.027322099 0.08272405
-0.46032524 0.016038314 0.087144673
-0.44323331 0.063843958 0.063102752
-0.44963503 0.017640583 0.084689699
-0.42960051 0.062011674 0.061660301
-0.42348453 0.039302155 0.072722137
-0.42625144 0.017632425 0.079886422
-0.43269226 -0.0073728934 0.084171526
-0.40609252 0.055207089 0.061517179
-0.41508472 0.051917441 0.064966097
-0.39575085 0.043496259 0.064943328
-0.42032203 0.020702213 0.078247949
-0.39252469 0.044481128 0.064071588
-0.39332438 0.037658148 0.066715248
-0.40428221 0.020553246 0.075072408
-0.37979966 0.050988093 0.058533303
-0.38008529 0.043679565 0.061366487
-0.3756977 0.060703553 0.053257119
-0.37295815 0.041544981 0.060781758
-0.3643932 0.043101408 0.058337107
-0.3772544 0.018147781 0.06951005
-0.35751477 -0.054609794 0.060950797
-0.3579883 -0.051840492 0.061905108
-0.34310153 0.070330247 0.041650388
-0.35290632 0.045282952 0.055071112
-0.36557737 0.046250835 0.057746008
-0.35706195 0.041064993 0.05733804
-0.37245089 0.03055197 0.065133184
-0.37077183 0.019660287 0.068216622
-0.35103673 0.045343742 0.055090621
-0.35469532 0.048608538 0.05463364
-0.3652648 0.031855553 0.063265532
-0.36626232 0.010887027 0.069854036
-0.33300743 0.047345243 0.050154049
-0.35479164 0.033361003 0.060436763
-0.3622514 0.01903569 0.067388564
-0.33361232 0.056631315 0.047169697
-0.32535687 0.04767289 0.048548173
-0.34870306 0.020270742 0.064252838
-0.34903008 0.02736862 0.061523717
-0.34722286 0.027245976 0.060888957
-0.22390552 -0.088634066 0.019396886
-0.32271165 0.057519592 0.04420739
-0.32409143 0.042561352 0.050484378
-0.32471541 0.030590039 0.054239694
-0.21241455 -0.089591146 0.017313082
-0.31390765 0.054486345 0.04384296
-0.31373531 0.058376625 0.041562483
-0.32085362 0.023064077 0.055607907
-0.20284861 -0.091439873 0.015274372
-0.30582011 0.059535224 0.040254153
-0.28924841 0.044531744 0.041647792
-0.29822707 0.078216285 0.032173205
-0.29259342 0.027200688 0.04816898
-0.2722103 0.081698798 0.02728451
-0.2863501 0.066440366 0.034963384
-0.27016956 0.049486298 0.036923442
-0.27465314 0.020113803 0.045414448
-0.26146102 0.052654095 0.035256825
-0.15625916 0.083232373 0.017506005
-0.19135664 0.056540031 0.024195332
-0.098624945 0.050774004 0.023691988
-0.086735785 0.057534698 0.023688281
-0.054910239 0.097863145 0.01811455
-0.054232366 0.10204254 0.017179476
-0.018474158 0.10828052 0.020174822
0.0096872393 -0.22095098 -0.071097761
0.0021768771 0.099831291 0.025129836
-0.0030331956 0.084190078 0.026083555
0.0058343764 0.12922002 0.019513037
0.0038119918 0.065070823 0.028790768
0.030024659 -0.19142467 -0.051531263
0.019690568 0.10018415 0.026915705
0.015233612 0.0777006 0.028618135
0.013496057 0.087014444 0.027767729
0.0081149051 0.074468143 0.028007435
0.0081149051 0.074468143 0.028007435
0.0093774889 0.065100908 0.030114638
0.025557449 0.087260887 0.029082598
0.034653742 0.095746718 0.02950302
0.044029605 -0.20823483 -0.060351331
0.1062616 -0.1680645 -0.030838735
0.12538548 -0.20433202 -0.052792415
0.22415847 0.28614825 -0.0034379661
0.33948857 0.24490574 0.020777717
0.35089847 0.22581126 0.023121055
0.39333537 0.15293083 0.03696391
0.38994718 -0.070690647 0.016091164
0.41539413 0.14049515 0.040020488
0.42181757 0.13952246 0.040578395
0.41375539 -0.070385203 0.019261178
0.42329684 0.1459704 0.039938007
0.42892265 0.13075732 0.042251579
0.42492718 -0.067452908 0.021658164
0.44724226 0.16174319 0.040408477
0.44985574 -0.025361028 0.037463851
0.4599314 -0.025054712 0.03887739
0.4897224 -0.097294554 0.025073137
0.49266866 -0.12924761 0.014510587
0.50496441 -0.020127311 0.045573168
0.50443864 -0.15872197 0.0059721172
0.51448077 -0.12866916 0.021043442
0.55211627 -0.10039391 0.038172174
0.56676859 -0.13745476 0.03179016
0.57496387 -0.13028096 0.035811067
0.70157576 -0.1669471 0.051557288
-0.48663971 0.023805633 0.09206605
-0.45527989 0.037795275 0.07959047
-0.4421601 0.03559351 0.077908739
-0.46765074 0.031971 0.08419881
-0.43741006 0.0011499301 0.084640279
-0.39778161 0.065907501 0.053824678
-0.39339805 0.056445599 0.05853352
-0.35696781 0.060941547 0.049544398
-0.37891209 0.0075102374 0.071245521
-0.38342735 0.01227022 0.07305596
-0.3425931 0.056072947 0.049039729
-0.32668036 0.067234293 0.040554214
-0.31695855 0.068234116 0.03851445
-0.18846379 0.057145037 0.023668557
-0.082746014 0.090845197 0.017102901
-0.058976445 0.083432935 0.020739891
-0.029591704 0.10169426 0.019987036
-0.039133042 0.089729838 0.020681327
-0.013393677 0.074976221 0.026363607
0.22624412 0.29537451 -0.0049810261
0.21861202 -0.21848533 -0.060424797
0.24287333 -0.21845753 -0.058949258
0.24287333 -0.21845753 -0.058949258
0.34031221 0.22435907 0.022817418
0.41192394 0.13262756 0.040637907
0.43764979 0.17018294 0.038427215
