# .PCD v0.7 - Point Cloud Data file format
VERSION 0.7
FIELDS x y z
SIZE 4 4 4
TYPE F F F
COUNT 1 1 1
WIDTH 121
HEIGHT 1
VIEWPOINT 0 0 0 1 0 0 0
POINTS 121
DATA ascii
2355.3687 1138.4771 -272.79129
2351.6682 1136.694 -314.80664
2357.052 1137.5966 -280.92328
2346.5034 1137.267 -324.13614
2361.9033 1133.79 -324.79486
2369.634 1132.7357 -313.9968
2366.0767 1135.4244 -283.47626
2363.0962 1133.145 -330.89935
2372.1663 1133.8726 -286.5878
2373.4443 1130.8805 -330.18591
2354.0947 1137.2609 -296.9563
2365.9573 1134.4552 -299.51746
2356.6013 1136.0309 -307.75742
2376.6819 1131.3473 -311.03375
2357.3176 1137.2762 -285.1282
2369.8445 1131.5731 -331.96622
2361.2322 1136.2367 -287.80325
2364.874 1132.8926 -328.57553
2351.0293 1139.0471 -279.20358
2363.5767 1135.9762 -283.57501
2359.8245 1134.2235 -325.28796
2365.9258 1134.1262 -304.92703
2354.7615 1137.1472 -296.39059
2359.042 1134.8342 -318.26132
2374.73 1131.3639 -317.78046
2354.9451 1137.4171 -291.38568
2365.3496 1134.9713 -293.38528
2357.0591 1134.2899 -334.15265
2366.356 1135.9485 -274.03369
2344.9919 1138.0237 -317.37885
2367.7251 1135.4603 -276.97482
2361.6704 1134.3876 -316.00952
2363.741 1136.1277 -280.54239
2350.9092 1136.3483 -323.1011
2375.6636 1130.6259 -326.31244
2375.6201 1130.0985 -334.95834
2359.575 1137.9941 -265.45383
2354.5596 1136.5258 -307.12582
2355.2217 1139.1423 -262.60349
2352.0125 1137.1627 -306.01965
2373.0217 1132.2904 -308.99573
2364.0439 1137.3909 -259.10892
2360.9463 1135.2339 -304.98108
2354.502 1139.3053 -262.56503
2344.6807 1138.7874 -306.19992
2381.6619 1130.3568 -309.08905
2351.2812 1138.1632 -292.53604
2367.7966 1134.4163 -293.5329
2341.7263 1141.4406 -274.0864
2349.9167 1139.3883 -277.7052
2360.3445 1136.2721 -290.42267
2366.75 1132.3046 -331.30661
2346.8225 1140.2896 -274.30872
2342.5823 1138.6487 -315.97443
2366.8027 1133.2078 -316.5723
2361.6326 1133.4485 -331.27002
2370.7029 1131.2899 -333.44348
2356.8533 1136.8544 -293.58951
2367.0208 1136.3229 -265.61423
2369.1536 1133.092 -309.98297
2362.9612 1135.2201 -297.96478
2355.9395 1138.0513 -277.59653
2360.5962 1136.7604 -281.65256
2364.0542 1133.2312 -326.06702
2353.658 1139.7532 -258.38501
2360.8943 1135.4352 -301.92532
2345.948 1141.1641 -263.36859
2361.092 1137.381 -269.87717
2362.7979 1134.2615 -313.98761
2344.082 1141.5182 -264.37088
2348.0808 1137.7882 -310.07501
2369.5579 1132.9525 -310.77908
2352.8438 1139.4933 -265.49591
2363.927 1136.6243 -271.87817
2360.9968 1134.7242 -313.0094
2366.9785 1131.9342 -336.44901
2359.7173 1135.7019 -301.86066
2349.5332 1140.2985 -264.42642
2348.0715 1138.0304 -306.2045
2361.5776 1137.8594 -260.42844
2355.9524 1135.198 -323.5062
2381.3535 1129.4725 -324.43976
2355.7861 1138.7502 -266.88934
2343.1663 1138.9434 -309.13052
2360.9629 1134.8041 -311.84131
2368.2844 1135.6957 -271.17416
2360.7959 1134.6425 -315.04816
2364.8755 1135.5597 -285.61453
2363.345 1133.132 -330.21332
2343.0122 1140.2687 -288.33807
2360.6125 1136.1959 -290.68768
2350.5498 1138.0372 -297.19183
2361.6897 1135.4076 -299.51236
2350.8203 1139.136 -278.52377
2357.6057 1137.4271 -281.6615
2364.624 1133.1489 -325.34775
2365.3254 1133.2693 -320.88715
2379.7192 1130.0177 -321.53159
2365.9858 1135.4963 -282.64267
2357.5881 1134.5042 -328.80435
2375.3762 1133.1819 -286.1763
2370.7014 1131.5856 -328.68546
2369.4539 1131.9885 -326.67834
2348.447 1140.7561 -260.95758
2352.9263 1136.9688 -305.85901
2368.8787 1133.2758 -308.01523
2350.8831 1139.9703 -264.85919
2351.9653 1137.1595 -306.24139
2364.1958 1136.5953 -271.379
2365.1077 1133.7518 -313.89789
2357.0608 1137.726 -278.80612
2354.0471 1135.6212 -323.53427
2372.396 1134.0958 -282.16559
2371.4763 1131.6151 -325.4241
2356.282 1138.2343 -273.42078
2354.4934 1135.8488 -318.26807
2368.0693 1135.114 -281.31845
2355.9976 1137.592 -284.78525
2358.0054 1134.5786 -326.10397
2354.1753 1137.6375 -290.60367
2377.9783 1132.2358 -292.06296
