# .PCD v0.7 - Point Cloud Data file format
VERSION 0.7
FIELDS x y z
SIZE 4 4 4
TYPE F F F
COUNT 1 1 1
WIDTH 121
HEIGHT 1
VIEWPOINT 0 0 0 1 0 0 0
POINTS 121
DATA ascii
2039.6079 -276.73917 1637.4774
2045.6283 -234.95499 1637.1179
2043.1729 -269.18732 1637.4679
2042.6222 -224.70782 1635.2975
2058.1746 -227.50165 1640.4597
2063.407 -239.75299 1638.0573
2052.7883 -268.71216 1639.198
2060.7793 -221.81683 1642.1035
2059.5977 -267.0376 1640.377
2070.9626 -224.82123 1642.9375
2043.925 -252.89771 1636.2533
2056.3799 -253.04776 1637.1167
2048.9304 -242.92755 1636.3909
2069.769 -244.21399 1637.5961
2044.4113 -265.14746 1636.8839
2067.7749 -222.28247 1643.1017
2048.9446 -263.41309 1637.7018
2062.0198 -224.47891 1641.8154
2036.7523 -269.51999 1635.2495
2050.3113 -268.05804 1638.7516
2056.2095 -226.5571 1640.2986
2057.6001 -247.76724 1637.1602
2044.4607 -253.59802 1636.519
2053.8015 -233.23248 1637.8912
2069.3782 -237.20151 1639.2684
2043.4866 -258.51804 1636.1893
2054.3535 -258.89017 1637.5881
2055.4954 -217.2984 1642.2693
2050.8828 -277.97949 1642.8497
2039.5471 -230.95792 1635.0793
2052.9326 -275.41791 1643.0253
2055.9089 -236.01413 1638.1168
2049.7737 -271.05112 1639.3157
2046.7882 -226.6998 1637.4552
2072.2854 -229.09238 1641.35
2074.2424 -220.6543 1648.9209
2042.1168 -284.8306 1642.325
2046.7424 -243.08774 1636.5317
2037.104 -286.638 1638.3434
2043.9397 -243.59778 1636.1987
2065.6375 -245.38406 1637.6024
2045.1178 -292.01303 1654.9471
2052.6331 -246.60349 1636.9448
2036.3756 -286.51489 1637.5962
2036.6493 -241.78622 1634.1169
2074.2991 -247.22092 1637.7682
2040.0887 -256.5791 1635.2334
2056.835 -259.29218 1637.5081
2026.2654 -272.43283 1632.3414
2035.293 -270.73251 1635.5078
2048.6631 -260.6615 1637.3882
2064.5273 -222.23505 1643.1189
2031.4131 -273.35315 1633.5494
2036.8127 -231.78943 1633.5095
2061.1714 -236.61057 1638.3958
2059.4016 -221.12894 1641.952
2068.9749 -221.03394 1644.5289
2045.9045 -256.79538 1636.9729
2049.5999 -286.33557 1653.2701
2061.9978 -243.55869 1637.5699
2053.0247 -253.89294 1637.0066
2041.2906 -272.18216 1637.2836
2046.886 -269.26718 1638.256
2060.6194 -226.74136 1640.9773
2034.5646 -290.40143 1636.2747
2051.8743 -249.57083 1636.9757
2028.0072 -283.823 1632.5995
2044.6572 -280.85699 1642.2224
2056.5686 -238.2366 1637.6676
2026.3734 -282.4296 1632.1544
2040.9463 -238.76724 1635.7717
2062.5862 -242.87283 1637.5822
2035.3953 -283.28775 1636.3862
2047.9552 -279.53885 1643.6759
2054.5413 -238.78845 1637.5004
2065.9458 -217.27301 1646.8533
2050.6824 -249.37131 1636.8206
2031.8373 -283.59164 1634.0254
2040.0414 -242.5383 1635.5431
2042.9568 -290.17645 1647.0576
2051.925 -227.43015 1638.9318
2077.5425 -232.1875 1641.8279
2038.66 -282.58578 1638.7295
2035.8131 -238.59134 1634.0784
2054.2371 -239.91953 1637.4172
2052.1497 -281.19745 1647.0939
2054.8118 -236.75604 1637.7054
2052.0818 -266.35965 1638.6398
2060.8694 -222.54114 1642.1937
2030.8485 -258.82654 1633.0133
2048.9924 -260.46298 1637.5961
2040.4346 -251.87723 1635.5698
2052.1113 -252.10059 1636.9714
2036.3862 -270.13608 1635.348
2043.8975 -268.59128 1637.6072
2061.0227 -227.5697 1640.8907
2060.6921 -232.07462 1639.355
2075.2351 -234.6579 1640.3196
2052.5044 -269.50449 1639.373
2054.7866 -222.63019 1640.5831
2062.7124 -268.15494 1640.1995
2067.8723 -225.67194 1642.381
2066.1606 -227.35022 1641.4961
2029.9486 -286.7309 1633.5619
2044.8163 -243.95831 1635.7686
2061.2673 -245.4155 1637.2177
2033.2872 -283.47098 1635.0208
2043.9437 -243.37112 1636.2495
2048.1084 -280.08548 1644.1318
2058.8577 -238.83954 1637.9596
2042.692 -271.25323 1637.6575
2050.0264 -226.97766 1638.4878
2058.8044 -271.39978 1641.8552
2067.8931 -229.02414 1641.2039
2040.6671 -276.32932 1638.0713
2049.2544 -232.211 1637.9113
2054.2815 -271.26025 1640.4534
2043.012 -265.18726 1636.578
2054.5791 -225.35571 1640.1238
2042.5358 -259.10858 1635.9865
2066.6763 -262.99689 1637.983
